ply
format ascii 1.0
element vertex 269
property float x
property float y
property float z
property float nx
property float ny
property float nz
end_header
145.1719970703125 0 0.649998009204864502 0.369412988424301147 -0.252440989017486572 -0.894318997859954834
142.75 1.25 0.593002021312713623 -0.559076011180877686 0.26554599404335022 -0.785441994667053223
141.9530029296875 1.5 0.573001980781555176 -0.268644005060195923 0.252243012189865112 0.929625988006591797
140.4530029296875 2.28125 0.569000005722045898 0.125835001468658447 -0.0128937000408768654 0.99196702241897583
139.718994140625 2.75 0.553000986576080322 -0.0972151011228561401 0.0677552968263626099 0.992954015731811523
138.688003540039062 3.25 0.53800201416015625 0.00669358018785715103 -0.00293524004518985748 0.999972999095916748
137.906005859375 3.5 0.532001018524169922 0.0221638996154069901 0.0428879000246524811 0.998834013938903809
136.906005859375 3.96875 0.580002009868621826 0.208557993173599243 -0.128023996949195862 0.969594001770019531
135.8280029296875 4.53125 0.45199999213218689 -0.102787002921104431 0.0793259963393211365 0.991535007953643799
135.031005859375 4.90625 0.416000008583068848 0.0379883982241153717 -0.0477869994938373566 0.998134970664978027
134.343994140625 5.34375 0.429001003503799438 -0.284581005573272705 -0.0938472971320152283 0.954047024250030518
133.625 5.71875 0.342002987861633301 0.149854004383087158 -0.111143000423908234 0.9824410080909729
132.906005859375 6.09375 0.373001009225845337 -0.12356799840927124 0.0981174036860466003 0.987474024295806885
131.311996459960938 6.6875 0.335002988576889038 0.118941999971866608 -0.00878684967756271362 0.99286198616027832
130.561996459960938 7.21875 0.39500001072883606 0.0665014013648033142 0.0076077999547123909 0.997757017612457275
128.8280029296875 8.15625 0.305000007152557373 -0.133879005908966064 0.193187996745109558 0.971984982490539551
128.141006469726562 8.40625 0.406002014875411987 0.062374800443649292 0.0766120031476020813 0.99510800838470459
127.359001159667969 8.6875 0.277999997138977051 -0.0569702014327049255 0.0113693997263908386 0.998310983180999756
126.3280029296875 9.34375 0.375 0.0406630001962184906 0.0285471007227897644 0.998764991760253906
125.561996459960938 9.625 0.278999000787734985 -0.219934001564979553 0.13845999538898468 0.965638995170593262
124.1719970703125 10.375 0.331001013517379761 0.0575396008789539337 -0.000137822993565350771 0.998342990875244141
122.734001159667969 11.0937995910644531 0.315001994371414185 -0.0869408026337623596 0.0759610012173652649 0.993313014507293701
121.515998840332031 11.5625 0.142002001404762268 0.967792987823486328 -0.250519990921020508 -0.024837300181388855
120.938003540039062 12 0.317000985145568848 -0.479236990213394165 0.877131998538970947 -0.031165100634098053
120.125 12.2187995910644531 0.270999997854232788 -0.172194004058837891 0.0951486974954605103 -0.980457007884979248
119.405998229980469 12.625 0.289000988006591797 0.412526994943618774 -0.16982799768447876 -0.894975006580352783
118.640998840332031 12.9687995910644531 0.299998998641967773 0.11987999826669693 -0.162128999829292297 -0.979461014270782471
117.9219970703125 13.5 0.224003002047538757 -0.278281986713409424 0.117858000099658966 -0.95324099063873291
116.5780029296875 14.0937995910644531 0.256000995635986328 -0.10040699690580368 0.0298880003392696381 -0.994497001171112061
115.515998840332031 14.5 0.209000006318092346 0.0118452999740839005 -0.0148619003593921661 -0.999818980693817139
113.688003540039062 15.4062004089355469 0.282000988721847534 -0.0931306034326553345 0.0268309991806745529 0.995292007923126221
110.844001770019531 16.9062004089355469 0.306998997926712036 -0.00973514001816511154 -0.00689759012311697006 0.99992901086807251
110.061996459960938 17.2187995910644531 0.257999002933502197 0.131981000304222107 -0.0748052000999450684 0.988426029682159424
109.469001770019531 17.6562004089355469 0.357001990079879761 -0.547698974609375 0.427599012851715088 0.719155013561248779
108.2969970703125 18.2187995910644531 0.298999994993209839 0.843824028968811035 -0.0206904001533985138 0.536221027374267578
107.0780029296875 18.75 0.172001004219055176 0.00433115987107157707 0.0332270003855228424 0.999437987804412842
105.594001770019531 19.4375 0.29600098729133606 0.056514400988817215 -0.0452136993408203125 0.997376978397369385
104.5469970703125 20.0312004089355469 0.267001986503601074 0.0679595023393630981 -0.0208324994891881943 0.997470974922180176
103.219001770019531 20.6875 0 0.0601072013378143311 0.0226505007594823837 0.997934997081756592
102.265998840332031 21.0625 0.343001991510391235 -0.429769009351730347 0.178045004606246948 0.885210990905761719
101.2030029296875 21.6562004089355469 0.3800010085105896 0.152719005942344666 0.143234997987747192 0.977834999561309814
100.405998229980469 22.125 0.332001000642776489 0.972883999347686768 0.0166429001837968826 -0.230691999197006226
99.1875 22.5312004089355469 0.379002004861831665 -0.0338471010327339172 0.104261003434658051 -0.993973970413208008
98.5156021118164062 23 0.39800301194190979 -0.179241001605987549 0.132267996668815613 -0.974873006343841553
97.4218978881835938 23.4062004089355469 0.386002004146575928 -0.0760089978575706482 0.103435002267360687 -0.991728007793426514
96.7811965942382812 23.875 0.394001007080078125 0.0263698995113372803 -0.0241512004286050797 -0.999360024929046631
96.1093978881835938 24.2187995910644531 0.416000008583068848 0.201392993330955505 -0.122092001140117645 -0.97187197208404541
93.7031021118164062 25.3437995910644531 0.416000008583068848 -0.209439992904663086 -0.0198681000620126724 -0.97762000560760498
92.2031021118164062 26.125 0.511002004146575928 -0.0473433993756771088 0.0279181990772485733 0.998488008975982666
89.7031021118164062 27.2812004089355469 0.519001007080078125 -0.461243987083435059 0.309172004461288452 0.831664979457855225
87.25 28.4375 0.588001012802124023 -0.492520987987518311 0.393130987882614136 0.77644801139831543
85.0156021118164062 29.5625 0.610001027584075928 -0.0926935970783233643 0.0165161006152629852 0.995558023452758789
83.625 30.2812004089355469 0.587001979351043701 0.0538675002753734589 -0.0618095993995666504 0.996632993221282959
83.0311965942382812 30.5625 0.66800302267074585 0.124220997095108032 -0.137397006154060364 0.982695996761322021
81.6718978881835938 31.1875 0.746998012065887451 -0.285652995109558105 0.100322999060153961 0.953068017959594727
80.1718978881835938 32 0.721004009246826172 -0.00220527010969817638 -0.101374998688697815 0.994845986366271973
79.1561965942382812 32.5625 0.785999000072479248 0.0781275033950805664 -0.0664435997605323792 0.994727015495300293
76.6561965942382812 33.6875 0.832005023956298828 -0.473201990127563477 0.485300004482269287 -0.735230028629302979
75.3125 34.4062004089355469 0.889003992080688477 0.680199027061462402 0.0426233001053333282 -0.731787025928497314
73.75 35.25 0.9689980149269104 -0.49083399772644043 0.0969495996832847595 -0.865841984748840332
72.5938034057617188 35.7187995910644531 0.995998024940490723 0.489371985197067261 -0.192247003316879272 -0.85062098503112793
71.5938034057617188 36.2812004089355469 1.07599997520446777 0.245409995317459106 -0.128332003951072693 0.960888028144836426
70.8593978881835938 36.6562004089355469 1.04700005054473877 -0.477470993995666504 0.227698996663093567 0.848631024360656738
69.5468978881835938 37.3437995910644531 1.07700002193450928 -0.282283008098602295 0.0797803029417991638 -0.956008017063140869
68.5156021118164062 37.875 1.20000004768371582 0.103304997086524963 -0.183072000741958618 -0.977657020092010498
66.9688034057617188 38.4687995910644531 1.21200001239776611 0.151973992586135864 0.185951992869377136 0.970735013484954834
66.2188034057617188 38.9375 1.19200003147125244 -0.186637997627258301 0.139244005084037781 0.972510993480682373
63.3125 40.375 1.3880000114440918 0.0418171994388103485 -0.0160434991121292114 0.99899601936340332
60.0625 41.9687995910644531 1.48199999332427979 0.112032003700733185 -0.051233198493719101 0.992383003234863281
59.4844017028808594 42.3437995910644531 1.52300000190734863 0.0211577992886304855 0.0840149968862533569 0.996240019798278809
58.7030982971191406 42.5625 1.54499995708465576 -0.0697889998555183411 -0.0156638007611036301 0.997439026832580566
58.0625 42.9062004089355469 1.54499995708465576 -0.0599475987255573273 -0.0316508002579212189 0.997699975967407227
56.7812004089355469 43.625 1.56400001049041748 -0.484501004219055176 0.0172068998217582703 -0.874621987342834473
56.1875 43.9062004089355469 1.68700003623962402 0.14364999532699585 -0.376275002956390381 -0.915304005146026611
54.4062004089355469 44.7187995910644531 1.74600005149841309 0.122841998934745789 -0.10704600065946579 0.986635982990264893
53.2187995910644531 45.2187995910644531 1.78799998760223389 -0.00195887009613215923 -0.0795776024460792542 0.996827006340026855
52.625 45.6562004089355469 1.85000002384185791 -0.00515069020912051201 0.0104806004092097282 0.999931991100311279
51.2812004089355469 46.1562004089355469 2.00500011444091797 0.0856214016675949097 -0.0989435985684394836 0.991402983665466309
50.3594017028808594 46.75 1.84700000286102295 -0.0586659014225006104 0.0388384014368057251 0.99752199649810791
47.5312004089355469 48.0625 2.12899994850158691 0.105443000793457031 -0.0949658975005149841 0.989880025386810303
46.9062004089355469 48.4375 2.13199996948242188 0.182206004858016968 -0.0827637985348701477 0.979771018028259277
45.5469017028808594 49.0312004089355469 2.27600002288818359 -0.41324499249458313 0.251322001218795776 0.875252008438110352
44.2030982971191406 49.9062004089355469 2.42199993133544922 -0.342900007963180542 0.140723004937171936 0.92877197265625
43.5 50.1875 2.28600001335144043 0.643362998962402344 -0.210847005248069763 0.735952973365783691
42.7812004089355469 50.375 2.43700003623962402 -0.248347997665405273 0.0278335008770227432 0.968271017074584961
40.0469017028808594 51.7812004089355469 2.56500005722045898 0.0933400988578796387 -0.0926851034164428711 0.991311013698577881
38.7969017028808594 52.5312004089355469 2.60599994659423828 -0.835346996784210205 0.455805987119674683 -0.307305008172988892
38.0625 52.8125 2.62599992752075195 0.870011985301971436 -0.261168986558914185 -0.418175011873245239
36.3594017028808594 53.6562004089355469 2.80699992179870605 -0.003927640151232481 0.0180882997810840607 0.999828994274139404
34.4844017028808594 54.4687995910644531 2.90499997138977051 -0.0664165988564491272 -0.0204597003757953644 0.997582018375396729
33.875 54.9375 2.94000005722045898 0.183991998434066772 -0.17742900550365448 0.966781020164489746
32.8437995910644531 55.3125 3.00699996948242188 0.0311198998242616653 -0.112369999289512634 0.993179023265838623
32.2187995910644531 55.625 3.01799988746643066 -0.0393774993717670441 -0.0572303012013435364 0.997583985328674316
30.9375 56.375 3.13100004196166992 0.0718170031905174255 -0.0143109997734427452 0.997314989566802979
29.9062004089355469 56.75 3.18300008773803711 0.0311808008700609207 -0.0258626006543636322 0.99917900562286377
28.6562004089355469 57.4687995910644531 3.30299997329711914 0.0770049020648002625 -0.0160218998789787292 0.996901988983154297
27.375 58.1875 3.42899990081787109 -0.000353192997863516212 0.0290747992694377899 0.999576985836029053
25.6562004089355469 58.8437995910644531 3.43899989128112793 -0.101798996329307556 0.121365003287792206 -0.987374007701873779
24.3593997955322266 59.6562004089355469 3.56999993324279785 0.430941998958587646 -0.00483189010992646217 -0.902366995811462402
23.5312004089355469 59.9062004089355469 3.60199999809265137 -0.31970900297164917 0.316789001226425171 -0.892989993095397949
22.3125 60.6875 3.79900002479553223 -0.0772147998213768005 -0.0052236202172935009 -0.997000992298126221
21.625 60.8437995910644531 3.85800004005432129 -0.041707698255777359 0.00776216015219688416 -0.999100029468536377
20.6718997955322266 61.3125 3.85100007057189941 -0.0496486015617847443 0.00144622998777776957 -0.998766005039215088
20.0781002044677734 61.6875 3.86700010299682617 -0.0737292021512985229 0.0128552000969648361 -0.997195005416870117
19.3593997955322266 61.9687995910644531 3.94099998474121094 -0.08375539630651474 0.0133090000599622726 -0.996397018432617188
18.6875 62.2812004089355469 3.95499992370605469 -0.123462997376918793 0.0321725010871887207 -0.991828024387359619
16.9531002044677734 63.1875 4.19600009918212891 -0.100585997104644775 0.0186049994081258774 -0.994754016399383545
15.0781002044677734 64.1561965942382812 4.40500020980834961 -0.00534461019560694695 -0.0280482005327939987 -0.999592006206512451
13.6875 64.7811965942382812 4.42199993133544922 -0.25468599796295166 0.0886360034346580505 -0.962952971458435059
12.125 65.625 4.49499988555908203 0.0312236007302999496 -0.0529849007725715637 -0.998107016086578369
11.0625 66.0625 4.58900022506713867 0.183880001306533813 -0.192022994160652161 -0.964010000228881836
10.4687995910644531 66.5 4.51399993896484375 -0.369700998067855835 0.199726000428199768 -0.90743100643157959
9.125 67 4.79600000381469727 -0.00220539001747965813 -0.0352228991687297821 -0.999377012252807617
8.0625 67.5311965942382812 4.86999988555908203 0.0557992011308670044 -0.221983999013900757 -0.973451972007751465
7.25 68.125 5.04600000381469727 -0.591795027256011963 0.198816001415252686 -0.781184971332550049
6.23437976837158203 68.4688034057617188 4.98299980163574219 0.141010001301765442 -0.106297001242637634 -0.98428499698638916
4.23437976837158203 69.5625 5.17899990081787109 -0.0988954976201057434 0.0256604999303817749 -0.99476701021194458
2.85938000679016113 70.2188034057617188 5.29699993133544922 -0.119174003601074219 0.0828360021114349365 -0.989412009716033936
1.89061999320983887 70.6875 5.44299983978271484 0.649486005306243896 -0.121423996984958649 -0.75061500072479248
0.578125 71.2188034057617188 5.59399986267089844 -0.365200012922286987 0.0579679012298583984 -0.929122984409332275
144.906005859375 0.1875 0.644001007080078125 0.00969090964645147324 0.0166065003722906113 -0.999814987182617188
144.2969970703125 0.625 0.622002005577087402 0.0451762005686759949 0.144361004233360291 -0.988493025302886963
143.75 0.90625 0.617000997066497803 0.0573972985148429871 0.144206002354621887 -0.987882018089294434
143.311996459960938 1.03125 0.611000001430511475 -0.0517745018005371094 0.078706398606300354 -0.995552003383636475
141.358993530273438 1.875 0.509002983570098877 0.118982002139091492 -0.02539060078561306 0.992572009563446045
140.2030029296875 2.40625 0.547001004219055176 0.000425739999627694488 0.00354108004830777645 0.999993979930877686
139.561996459960938 2.84375 0.458999991416931152 -0.126836001873016357 0.0908705964684486389 0.987752974033355713
138.438003540039062 3.4375 0.465000003576278687 -0.00208784011192619801 -0.00454303016886115074 0.999988019466400146
137.5469970703125 3.71875 0.434002012014389038 0.0515592992305755615 -0.00165926001500338316 0.998669028282165527
137.0780029296875 3.875 0.462002009153366089 0.321202993392944336 -0.232513993978500366 0.918022990226745605
136.5469970703125 4.28125 0.437999993562698364 -0.340591013431549072 0.211235001683235168 0.916176021099090576
135.5780029296875 4.625 0.39300200343132019 -0.0623783990740776062 0.0351651981472969055 0.997433006763458252
134.968994140625 5.0625 0.403999000787734985 0.0666273012757301331 -0.185802996158599854 0.980324983596801758
134.358993530273438 5.5 0.472999989986419678 -0.351162999868392944 -0.0119449002668261528 0.936237990856170654
133.3280029296875 5.9375 0.474002987146377563 0.129510998725891113 -0.0269680991768836975 0.991210997104644775
132.266006469726562 6.28125 0.414000988006591797 -0.0486541986465454102 0.0693200007081031799 0.996406972408294678
131.7030029296875 6.625 0.303000986576080322 0.00967400986701250076 0.025345800444483757 0.999632000923156738
131.016006469726562 7.09375 0.406002014875411987 0.0733989030122756958 -0.0230580996721982956 0.997035980224609375
130.4219970703125 7.375 0.423999994993209839 0.121372997760772705 -0.0389579981565475464 0.991841971874237061
128.811996459960938 8.0625 0.331001013517379761 -0.0570940002799034119 0.133529007434844971 0.9893990159034729
128.4219970703125 8.1875 0.284999996423721313 0.185222998261451721 -0.00718314992263913155 0.982670009136199951
127.9219970703125 8.53125 0.309002012014389038 -0.164985001087188721 0.153993993997573853 0.974200010299682617
127.405998229980469 8.9375 0.294003009796142578 0.000679638003930449486 -0.00196686992421746254 0.999997973442077637
126.859001159667969 9.15625 0.361999988555908203 0.0526010990142822266 -0.00497729005292057991 0.998602986335754395
125.780998229980469 9.625 0.367000997066497803 -0.192402005195617676 0.15184299647808075 0.969497025012969971
124.6719970703125 10.0937995910644531 0.237000003457069397 0.0395413003861904144 0.0204751994460821152 0.999007999897003174
123.438003540039062 10.8125 0.292998999357223511 -0.0097581101581454277 0.00155732000712305307 0.999951004981994629
122.4219970703125 11.2187995910644531 0.317000985145568848 -0.458658009767532349 0.323350995779037476 0.827692985534667969
121.530998229980469 11.7187995910644531 0.29600098729133606 0.97916799783706665 -0.0596969984471797943 0.194077998399734497
120.515998840332031 12.0937995910644531 0.239002004265785217 -0.397908002138137817 0.268689990043640137 -0.877197027206420898
119.811996459960938 12.4687995910644531 0.305999994277954102 0.00941700022667646408 0.054159998893737793 -0.998488008975982666
119.219001770019531 12.8125 0.0979996025562286377 0.258873999118804932 -0.145597994327545166 -0.954874992370605469
118.609001159667969 13.0312004089355469 0.252003014087677002 0.191240996122360229 -0.149434998631477356 -0.970100998878479004
118.155998229980469 13.1875 0.173999994993209839 -0.177514001727104187 0.0595212988555431366 -0.982316970825195312
117.609001159667969 13.5625 0.277000010013580322 -0.211776003241539001 0.0742563977837562561 -0.974493026733398438
117.109001159667969 13.875 0.222000002861022949 -0.110220998525619507 0.0281927995383739471 -0.993507027626037598
115.938003540039062 14.5 0.254002004861831665 0.00195700000040233135 -0.0280790999531745911 -0.999603986740112305
114.7969970703125 14.9375 0.223000004887580872 0.217341005802154541 -0.138046994805335999 -0.966284990310668945
114.2030029296875 15.2187995910644531 0.318001002073287964 -0.100964002311229706 0.0341171994805335999 0.994305014610290527
113.219001770019531 15.75 0.238003000617027283 -0.0597083009779453278 0.0479994006454944611 0.997061014175415039
112.1719970703125 16.3125 0.23500099778175354 0.0495706014335155487 0.00522862980142235756 0.998757004737854004
111.094001770019531 16.7812004089355469 0.354000002145767212 -0.0265765991061925888 0.0178231000900268555 0.999487996101379395
110 17.3125 0.220000997185707092 0.410708010196685791 -0.200372993946075439 0.889477014541625977
109.405998229980469 17.625 0.282000988721847534 -0.653707027435302734 0.464228987693786621 0.597626984119415283
108.2969970703125 18.0937995910644531 0.262001007795333862 0.870719015598297119 -0.139293000102043152 0.471641004085540771
107.7030029296875 18.4687995910644531 0.261002004146575928 -0.396257996559143066 0.63628000020980835 0.661912024021148682
106.530998229980469 19.0937995910644531 0.35499998927116394 0.0864870026707649231 -0.00390059989877045155 0.996245026588439941
105.469001770019531 19.5312004089355469 0.333999991416931152 0.140400007367134094 -0.0661469027400016785 0.98788297176361084
104.375 20.0937995910644531 0.29600098729133606 0.169982999563217163 -0.0824597999453544617 0.981990993022918701
103.7030029296875 20.5625 0.39500001072883606 -0.44184499979019165 0.191943004727363586 0.87631601095199585
102.734001159667969 20.875 0.290001004934310913 0.503445029258728027 -0.236820995807647705 0.830938994884490967
102.188003540039062 21.125 0.24600200355052948 -0.562902987003326416 0.241160005331039429 0.790557980537414551
101.469001770019531 21.5937995910644531 0.347000002861022949 0.279624998569488525 -0.126864001154899597 0.951690971851348877
100.390998840332031 22.0312004089355469 0.287003010511398315 0.959397971630096436 -0.0702183991670608521 -0.273173987865447998
99.7656021118164062 22.5 0.36000099778175354 -0.289611011743545532 0.738572001457214355 -0.608798980712890625
98.7343978881835938 23 0.340000003576278687 -0.107524998486042023 0.0705782026052474976 -0.991693973541259766
97.7031021118164062 23.4375 0.366001009941101074 -0.0403775982558727264 -0.00317990011535584927 -0.99917900562286377
96.625 23.9062004089355469 0.372002005577087402 -0.0973853990435600281 0.138035997748374939 -0.985628008842468262
96.0156021118164062 24.3125 0.353000998497009277 0.318145006895065308 -0.17122100293636322 -0.932452023029327393
94.3125 25.1562004089355469 0.419003009796142578 -0.0850607007741928101 -0.108871996402740479 -0.990409970283508301
93.6718978881835938 25.5625 0.442000985145568848 -0.401037007570266724 0.0917133018374443054 -0.911459028720855713
92.4843978881835938 26.0625 0.483002007007598877 0.248649999499320984 -0.0330999009311199188 0.968028008937835693
91.4218978881835938 26.5 0.298999994993209839 0.0973289981484413147 -0.0408922992646694183 0.994412004947662354
90.8593978881835938 26.7812004089355469 0.402000010013580322 0.219258993864059448 -0.0819606035947799683 0.972217977046966553
89.7656021118164062 27.25 0.599003016948699951 -0.48257601261138916 0.355039000511169434 0.800666987895965576
89.2031021118164062 27.7187995910644531 0.492000997066497803 0.226110994815826416 -0.110781997442245483 0.967781007289886475
88.1093978881835938 28.1562004089355469 0.53800201416015625 0.606685996055603027 -0.0557803995907306671 0.792981982231140137
87.4531021118164062 28.5625 0.655003011226654053 -0.369044989347457886 0.450017005205154419 0.813197970390319824
86.5625 28.875 0.55900198221206665 0.314447999000549316 0.0325654000043869019 0.94871598482131958
85.9061965942382812 29.4062004089355469 0.585003018379211426 0.115638002753257751 0.104976996779441833 0.987729012966156006
84.8593978881835938 29.7187995910644531 0.569999992847442627 -0.0329154990613460541 0.0573744997382164001 0.997810006141662598
84.1406021118164062 30.125 0.592002987861633301 0.102121002972126007 0.000458763010101392865 0.994772017002105713
82.8125 30.7812004089355469 0.7550010085105896 0.227291002869606018 -0.123214997351169586 0.966000020503997803
81.6561965942382812 31.375 0.693005025386810303 -0.289023995399475098 0.223298996686935425 0.930914998054504395
80.4531021118164062 32 0.805004000663757324 0.0824721008539199829 -0.0382103994488716125 0.9958609938621521
79.4218978881835938 32.5625 0.811001002788543701 0.157074004411697388 0.0122811999171972275 0.987510979175567627
78.5156021118164062 32.8125 0.763004004955291748 0.0250783991068601608 -0.105471998453140259 0.994105994701385498
77.8593978881835938 33.2812004089355469 0.777004003524780273 -0.280037999153137207 0.301470011472702026 0.911423981189727783
76.5468978881835938 33.875 0.9460030198097229 -0.247749999165534973 0.183211997151374817 -0.951342999935150146
75.3125 34.5312004089355469 0.924998998641967773 0.57239300012588501 0.234228998422622681 -0.785812973976135254
74.7968978881835938 34.7812004089355469 0.950001001358032227 -0.153666004538536072 0.585054993629455566 -0.79630202054977417
74.25 35.0937995910644531 0.960003018379211426 0.0924210995435714722 -0.084273703396320343 -0.99214702844619751
73.5938034057617188 35.4375 1.16299998760223389 -0.580646991729736328 0.192237004637718201 -0.791133999824523926
72.5156021118164062 35.8437995910644531 1.00699996948242188 0.411751002073287964 -0.209168002009391785 -0.886967003345489502
71.2656021118164062 36.5 0.996998012065887451 0.0174420997500419617 0.10805799812078476 0.993991971015930176
70.0938034057617188 37.0312004089355469 1.08599996566772461 -0.297291010618209839 0.0612737014889717102 -0.952818989753723145
69.4688034057617188 37.4375 1.12899994850158691 -0.408176988363265991 0.11072000116109848 -0.906163990497589111
68.9688034057617188 37.6875 1.16499996185302734 -0.156479999423027039 -0.081304699182510376 -0.984328985214233398
68.1093978881835938 37.9375 1.12699997425079346 0.894411027431488037 -0.400667011737823486 -0.198734000325202942
67.3438034057617188 38.5312004089355469 1.23500001430511475 -0.210978999733924866 0.356274008750915527 0.910251021385192871
66.7343978881835938 38.7812004089355469 1.2929999828338623 0.347113996744155884 0.0653624981641769409 0.935541987419128418
65.4375 39.4062004089355469 1.32299995422363281 0.0647028982639312744 0.0407551005482673645 0.997071981430053711
64.7656021118164062 39.7187995910644531 1.38499999046325684 -0.0959295034408569336 0.0955810025334358215 0.990787982940673828
63.6094017028808594 40.25 1.35500001907348633 0.148586004972457886 -0.0361871011555194855 0.98823702335357666
62.5 40.75 1.35599994659423828 0.0276503004133701324 -0.0236329007893800735 0.999337971210479736
61.875 41.0937995910644531 1.40100002288818359 -0.282914996147155762 0.166730999946594238 0.944541990756988525
60.2655982971191406 41.875 1.49300003051757812 0.21606600284576416 -0.089416801929473877 0.972275972366333008
59.1875 42.3437995910644531 1.51800000667572021 -0.0081454198807477951 -0.043427199125289917 0.999023020267486572
57.8125 43.125 1.60699999332427979 -0.0509491004049777985 0.0495416000485420227 0.997471988201141357
57.1405982971191406 43.5312004089355469 1.60899996757507324 -0.203757002949714661 -0.152298003435134888 -0.967103004455566406
56.5312004089355469 43.8125 1.7070000171661377 -0.501625001430511475 0.00632430985569953918 -0.86506199836730957
55.4687995910644531 44.2812004089355469 1.69799995422363281 0.390177011489868164 -0.173451006412506104 0.9042549729347229
54.2812004089355469 44.8437995910644531 1.79799997806549072 0.184716999530792236 -0.0704362019896507263 0.980264008045196533
51.9375 46.0937995910644531 1.79700005054473877 0.170763999223709106 0.0201606005430221558 0.985105991363525391
50.7655982971191406 46.5312004089355469 1.89699995517730713 -0.0813203975558280945 0.0340766012668609619 0.996105015277862549
49.5155982971191406 47.25 1.96399998664855957 0.0243724994361400604 0.0386682003736495972 0.998955011367797852
48.3905982971191406 47.8125 2.04500007629394531 0.224158003926277161 -0.0557865016162395477 0.972954988479614258
47.1562004089355469 48.4375 2.12199997901916504 0.0737850964069366455 0.047315601259469986 0.996150970458984375
45.4375 49.0625 2.16400003433227539 -0.395568013191223145 0.234362006187438965 0.888032019138336182
44.6875 49.5625 2.25399994850158691 0.297154992818832397 -0.117949001491069794 0.947516024112701416
43.4219017028808594 50.2187995910644531 2.39899992942810059 0.616477012634277344 -0.209316998720169067 0.759039998054504395
42.3905982971191406 50.6875 2.36299991607666016 -0.192066997289657593 0.0986495986580848694 0.976410984992980957
41.75 51.0937995910644531 2.40199995040893555 -0.0301814991980791092 0.0663999021053314209 0.997336983680725098
40.6094017028808594 51.625 2.45600008964538574 0.135747998952865601 -0.0322356000542640686 0.990218997001647949
38.7655982971191406 52.4375 2.62199997901916504 -0.812332987785339355 0.486919999122619629 -0.320973008871078491
38.1094017028808594 52.7187995910644531 2.70600008964538574 0.830642998218536377 -0.0549971982836723328 -0.554082989692687988
36.6562004089355469 53.5625 2.80699992179870605 -1.71737992786802351e-05 0.0397274009883403778 0.999211013317108154
35.9844017028808594 53.9687995910644531 2.78200006484985352 -0.0114631997421383858 0.0562978014349937439 0.998347997665405273
34.8125 54.4375 2.81800007820129395 0.0851828008890151978 -0.0829707980155944824 0.992905020713806152
34.0625 54.9687995910644531 2.89599990844726562 0.037470601499080658 -0.0997366011142730713 0.994307994842529297
32.9530982971191406 55.375 3.01600003242492676 0.0423341989517211914 -0.0553033985197544098 0.997572004795074463
31.7187995910644531 56.0937995910644531 3.09100008010864258 0.0809072032570838928 -0.00291177001781761646 0.996716976165771484
30.7343997955322266 56.4375 3.15199995040893555 0.085436500608921051 -0.0390321016311645508 0.995579004287719727
30.1718997955322266 56.7187995910644531 3.19300007820129395 0.0110079003497958183 0.0125200999900698662 0.999861001968383789
28.9531002044677734 57.25 3.28099989891052246 0.0659172013401985168 -0.0301777999848127365 0.997368991374969482
28.2031002044677734 57.7187995910644531 3.33699989318847656 0.0773655995726585388 -0.0188529007136821747 0.996824979782104492
27.0468997955322266 58.1562004089355469 3.40599989891052246 -0.12602899968624115 0.0613901987671852112 0.990125000476837158
26.2812004089355469 58.625 3.49499988555908203 0.0474379993975162506 0.015733400359749794 -0.998749971389770508
24.3906002044677734 59.5 3.60899996757507324 0.45434299111366272 -0.130365997552871704 -0.881236016750335693
23.6406002044677734 60.0312004089355469 3.63499999046325684 -0.245956003665924072 0.382131010293960571 -0.890775978565216064
22.625 60.4062004089355469 3.68899989128112793 -0.118658997118473053 0.0940738990902900696 -0.98846900463104248
22.0156002044677734 60.75 3.78399991989135742 -0.0660092979669570923 0.0421749986708164215 -0.996927022933959961
21.3593997955322266 61.1875 3.78900003433227539 0.0716772004961967468 -0.04195379838347435 -0.996545016765594482
18.2031002044677734 62.5312004089355469 4.07899999618530273 -0.129200994968414307 0.030917799100279808 -0.991136014461517334
17.4375 63.125 4.1100001335144043 -0.11095699667930603 0.040024101734161377 -0.993018984794616699
16.2656002044677734 63.5 4.19000005722045898 -0.0897217020392417908 0.0108840996399521828 -0.995907008647918701
14.3593997955322266 64.5 4.32399988174438477 -0.00722800986841320992 -0.0156922992318868637 -0.999850988388061523
13.7812004089355469 64.7811965942382812 4.38199996948242188 -0.264403998851776123 0.108980998396873474 -0.958235025405883789
12.4687995910644531 65.4375 4.54400014877319336 0.0229880008846521378 -0.0145509000867605209 -0.999629974365234375
10.2968997955322266 66.5938034057617188 4.69899988174438477 -0.473486006259918213 0.264342993497848511 -0.840198993682861328
8.96875 67.2188034057617188 4.81199979782104492 0.00234985002316534519 -0.0322732999920845032 -0.999476015567779541
7.28125 68 4.94099998474121094 -0.570518016815185547 0.181780993938446045 -0.800915002822875977
6 68.6561965942382812 5.09399986267089844 -0.043362099677324295 -0.0135233001783490181 -0.998968005180358887
4.71875 69.2188034057617188 5.15500020980834961 -0.0345750004053115845 -0.0429389998316764832 -0.998479008674621582
3.92188000679016113 69.6875 5.23600006103515625 -0.13528500497341156 0.0292012002319097519 -0.990375995635986328
3.15625 70.0938034057617188 5.34000015258789062 -0.0917278975248336792 0.0448318012058734894 -0.994773983955383301
1.89061999320983887 70.625 5.46199989318847656 0.66067802906036377 -0.195258006453514099 -0.724829971790313721
1.23438000679016113 71 5.51599979400634766 -0.443809986114501953 0.412122011184692383 -0.795731008052825928
0.5 71.4688034057617188 5.65600013732910156 -0.383899003267288208 0.407496988773345947 -0.828594028949737549
