ply
format ascii 1.0
element vertex 467
property float x
property float y
property float z
property float nx
property float ny
property float nz
end_header
119.828125 12.59375 0.270000457763671875 -0.820620596408843994 0.570904970169067383 0.0254808645695447922
119.40625 12.625 0.28900146484375 -0.927316665649414062 0.374275714159011841 -0.00123255967628210783
119.0625 12.90625 0.29199981689453125 -0.945761620998382568 0.273091793060302734 -0.175942540168762207
118.640625 12.96875 0.299999237060546875 -0.924592137336730957 0.380673527717590332 0.0147347869351506233
118.234375 13.21875 0.227001190185546875 -0.882754147052764893 0.467132747173309326 0.0503210984170436859
117.921875 13.5 0.224002838134765625 -0.851324200630187988 0.523481309413909912 -0.0348493680357933044
117.265625 13.78125 0.351001739501953125 -0.888689517974853516 0.453319758176803589 -0.0687896609306335449
116.578125 14.09375 0.256000518798828125 -0.925269246101379395 0.3771553635597229 -0.0403810553252696991
116.1875 14.15625 0.215000152587890625 -0.850736618041992188 0.525586366653442383 -0.00248170411214232445
115.515625 14.5 0.2089996337890625 -0.833710670471191406 0.5515555739402771 0.0267019979655742645
114.109375 15.3125 0.332000732421875 -0.913367092609405518 0.40544775128364563 -0.0370482802391052246
113.6875 15.40625 0.282001495361328125 -0.926636099815368652 0.375735253095626831 -0.0129858562722802162
111.90625 16.28125 0.24900054931640625 -0.929003894329071045 0.352873682975769043 0.111498609185218811
110.84375 16.90625 0.30699920654296875 -0.917666256427764893 0.397331953048706055 0.00398353580385446548
110.46875 17.09375 0.27899932861328125 -0.880701720714569092 0.467707365751266479 -0.0749284476041793823
110.0625 17.21875 0.257999420166015625 -0.923696815967559814 0.377593278884887695 -0.06486501544713974
109.75 17.5 0.16500091552734375 -0.883886635303497314 0.451730221509933472 -0.121178232133388519
109.46875 17.65625 0.35700225830078125 -0.907186686992645264 0.419136792421340942 -0.0365611501038074493
108.640625 17.96875 0.238002777099609375 -0.902771592140197754 0.429390788078308105 -0.0250408295542001724
108.296875 18.21875 0.298999786376953125 -0.902861118316650391 0.42988663911819458 -0.0062781493179500103
107.90625 18.46875 0.27700042724609375 -0.91997528076171875 0.390749752521514893 -0.0309838652610778809
107.078125 18.75 0.172000885009765625 -0.919360101222991943 0.392621338367462158 -0.0250096078962087631
106.40625 19.15625 0.2740020751953125 -0.909110724925994873 0.414566457271575928 0.0406502485275268555
105.59375 19.4375 0.296001434326171875 -0.876890778541564941 0.480401694774627686 -0.0166350100189447403
105.21875 19.65625 0.3040008544921875 -0.933778166770935059 0.357824742794036865 0.00444550765678286552
104.546875 20.03125 0.267002105712890625 -0.876399338245391846 0.47930791974067688 -0.0467779077589511871
104.234375 20.0625 0.3430023193359375 -0.881823420524597168 0.461211502552032471 -0.0983433052897453308
103.21875 20.6875 0 -0.859699130058288574 0.466568976640701294 -0.207920059561729431
103 20.8125 0.3339996337890625 -0.893125236034393311 0.448675334453582764 -0.0319029204547405243
102.265625 21.0625 0.3430023193359375 -0.900314033031463623 0.420532703399658203 0.11219121515750885
102 21.375 0.422000885009765625 -0.9011039137840271 0.431668609380722046 0.0409132055938243866
101.203125 21.65625 0.380001068115234375 -0.89751046895980835 0.440527111291885376 -0.020267784595489502
100.75 21.8125 0.298000335693359375 -0.895231842994689941 0.445395052433013916 0.0135364336892962456
100.40625 22.125 0.332000732421875 -0.921790421009063721 0.387569695711135864 0.00959318503737449646
99.578125 22.40625 0.375 -0.868506312370300293 0.492502152919769287 0.0560213029384613037
99.1875 22.53125 0.379001617431640625 -0.90619361400604248 0.422843784093856812 0.00402530282735824585
98.921875 22.875 0.448001861572265625 -0.860962450504302979 0.503598451614379883 0.0716395378112792969
98.515625 23 0.39800262451171875 -0.885243475437164307 0.465117424726486206 0.00311144115403294563
98.1875 23.1875 0.424999237060546875 -0.900924384593963623 0.432950079441070557 -0.0298255663365125656
97.421875 23.40625 0.3860015869140625 -0.928462028503417969 0.368592649698257446 0.0458031222224235535
97.078125 23.625 0.364002227783203125 -0.894829630851745605 0.445607244968414307 0.0267214737832546234
96.78125 23.875 0.394001007080078125 -0.886601448059082031 0.462533503770828247 -0.000819982611574232578
96.4375 24.03125 0.384002685546875 -0.902352631092071533 0.428337186574935913 0.0478226132690906525
96.109375 24.21875 0.4160003662109375 -0.887723088264465332 0.458713710308074951 0.0391090884804725647
94.59375 24.9375 0.444000244140625 -0.880910515785217285 0.473241358995437622 0.00626300834119319916
93.703125 25.34375 0.4160003662109375 -0.916640818119049072 0.399675220251083374 -0.00541218742728233337
93.46875 25.59375 0.52300262451171875 -0.894102036952972412 0.440359234809875488 0.0816410854458808899
92.203125 26.125 0.5110015869140625 -0.893266141414642334 0.433601707220077515 -0.118597023189067841
90.046875 27.0625 0.477001190185546875 -0.899626493453979492 0.427294254302978516 0.0899543240666389465
89.703125 27.28125 0.519001007080078125 -0.891012251377105713 0.450143754482269287 0.0588876418769359589
89.328125 27.46875 0.558002471923828125 -0.8834189772605896 0.463410556316375732 0.0694378018379211426
87.25 28.4375 0.588001251220703125 -0.88413470983505249 0.466770470142364502 0.020764550194144249
86.921875 28.65625 0.561000823974609375 -0.846926569938659668 0.531348228454589844 0.0196049287915229797
85.015625 29.5625 0.6100006103515625 -0.945594310760498047 0.325135409832000732 0.0117624029517173767
84.703125 29.84375 0.648998260498046875 -0.920717895030975342 0.388991683721542358 0.0310492794960737228
83.625 30.28125 0.587001800537109375 -0.890719592571258545 0.452032387256622314 0.0478052087128162384
83.375 30.46875 0.700000762939453125 -0.912379801273345947 0.40484917163848877 0.060499534010887146
83.03125 30.5625 0.668003082275390625 -0.890640377998352051 0.451361387968063354 0.0550695732235908508
82.34375 30.875 0.632999420166015625 -0.905496120452880859 0.424315959215164185 0.00572412274777889252
81.671875 31.1875 0.746997833251953125 -0.828422307968139648 0.560070514678955078 -0.0061297970823943615
80.890625 31.59375 0.705997467041015625 -0.907042324542999268 0.421037673950195312 -0.00125743052922189236
80.171875 32 0.721004486083984375 -0.885359466075897217 0.464323878288269043 0.0232804398983716965
79.8125 32.1875 0.758998870849609375 -0.874094724655151367 0.483317822217941284 0.0486031509935855865
79.15625 32.5625 0.785999298095703125 -0.880618810653686523 0.472962617874145508 0.0285783298313617706
78.890625 32.8125 0.909999847412109375 -0.880592942237854004 0.473776757717132568 0.00956766214221715927
76.65625 33.6875 0.832004547119140625 -0.844463348388671875 0.530309319496154785 0.0751912891864776611
76.359375 33.9375 0.903003692626953125 -0.891889035701751709 0.450607806444168091 0.0385569408535957336
75.3125 34.40625 0.889003753662109375 -0.897576987743377686 0.440836846828460693 0.00429285923019051552
74.71875 34.84375 0.959003448486328125 -0.889302253723144531 0.448088288307189941 0.0914244651794433594
73.75 35.25 0.968997955322265625 -0.908504486083984375 0.417203694581985474 0.0236797574907541275
73.359375 35.4375 0.892002105712890625 -0.923430979251861572 0.381575673818588257 0.0409288741648197174
72.59375 35.71875 0.995998382568359375 -0.889414608478546143 0.4570884108543396 0.0034253725316375494
71.90625 36.125 0.994998931884765625 -0.890725672245025635 0.453926444053649902 0.023633098229765892
71.59375 36.28125 1.07600021362304688 -0.89447784423828125 0.447064638137817383 0.00651929620653390884
71.234375 36.46875 1.06399917602539062 -0.892962038516998291 0.44960901141166687 0.021691150963306427
70.859375 36.65625 1.04700088500976562 -0.888936817646026611 0.457638829946517944 0.0189235508441925049
69.875 37.15625 1.06499862670898438 -0.891922056674957275 0.451469004154205322 0.0255093146115541458
69.546875 37.34375 1.07699966430664062 -0.873830497264862061 0.485696703195571899 0.0227813012897968292
69.140625 37.375 1.11000442504882812 -0.798965036869049072 0.600335955619812012 0.0353786982595920563
68.515625 37.875 1.20000076293945312 -0.856497287750244141 0.515424787998199463 0.0273799411952495575
67.734375 38.21875 1.12900161743164062 -0.933812916278839111 0.357543140649795532 0.0125075140967965126
66.96875 38.46875 1.21200180053710938 -0.916585743427276611 0.396033704280853271 0.0550263933837413788
66.578125 38.6875 1.21100234985351562 -0.883830785751342773 0.463614940643310547 0.0624839365482330322
66.21875 38.9375 1.19199752807617188 -0.881587326526641846 0.467778116464614868 0.0631460249423980713
63.640625 40.1875 1.29999923706054688 -0.887863457202911377 0.460066735744476318 -0.0060873962938785553
63.3125 40.375 1.38800430297851562 -0.875000953674316406 0.480916202068328857 0.0556144490838050842
60.625 41.59375 1.49900436401367188 -0.884177505970001221 0.466954261064529419 -0.0135623160749673843
60.0625 41.96875 1.48199844360351562 -0.917471110820770264 0.397147625684738159 0.0228152759373188019
59.71875 42.09375 1.46899795532226562 -0.890836775302886963 0.454215496778488159 0.00990029610693454742
59.484375 42.34375 1.52299880981445312 -0.917359054088592529 0.397295892238616943 0.0246638953685760498
59.046875 42.40625 1.49200057983398438 -0.90525442361831665 0.424392402172088623 0.0201382581144571304
58.703125 42.5625 1.54500198364257812 -0.896216034889221191 0.439439922571182251 0.0607402212917804718
58.421875 42.8125 1.57300186157226562 -0.899390697479248047 0.436139225959777832 0.0296477265655994415
58.0625 42.90625 1.54500198364257812 -0.904405713081359863 0.426648139953613281 0.00465334532782435417
57.078125 43.4375 1.50500106811523438 -0.901243209838867188 0.431905657052993774 -0.0349014215171337128
56.78125 43.625 1.56399917602539062 -0.882604241371154785 0.46772456169128418 0.0473656170070171356
56.5 43.78125 1.63599777221679688 -0.883171677589416504 0.467926949262619019 0.0324386321008205414
56.1875 43.90625 1.68700027465820312 -0.897946357727050781 0.439433097839355469 0.024307718500494957
54.765625 44.5 1.70100021362304688 -0.838323533535003662 0.543879568576812744 0.0375311076641082764
54.40625 44.71875 1.74599838256835938 -0.837982475757598877 0.5455208420753479 0.0138674359768629074
54.0625 44.96875 1.76099777221679688 -0.863042473793029785 0.500106334686279297 0.0710715800523757935
53.21875 45.21875 1.78799819946289062 -0.89780879020690918 0.439570516347885132 0.0267822332680225372
52.921875 45.46875 1.80299758911132812 -0.929556727409362793 0.367840111255645752 0.0248570740222930908
52.625 45.65625 1.85000228881835938 -0.868312656879425049 0.495125293731689453 -0.029734363779425621
52.234375 45.75 1.84600448608398438 -0.891073167324066162 0.444417744874954224 0.0920952633023262024
51.28125 46.15625 2.00500106811523438 -0.886339724063873291 0.463034242391586304 -0.00108185026329010725
51.015625 46.4375 1.94099807739257812 -0.901722133159637451 0.422816634178161621 0.0901299044489860535
50.359375 46.75 1.84700393676757812 -0.870227992534637451 0.492557108402252197 0.00952801387757062912
49.375 47.28125 1.99900436401367188 -0.872256815433502197 0.484461098909378052 0.0668245255947113037
47.53125 48.0625 2.12900161743164062 -0.953867852687835693 0.289502978324890137 0.079524703323841095
47.28125 48.34375 2.15600204467773438 -0.911659538745880127 0.406741350889205933 0.0586374066770076752
46.90625 48.4375 2.13199996948242188 -0.917119622230529785 0.395662426948547363 0.0484021194279193878
45.890625 48.875 2.20499801635742188 -0.904384732246398926 0.423833400011062622 0.0495343208312988281
45.546875 49.03125 2.27600479125976562 -0.86861342191696167 0.495455116033554077 0.00590885709971189499
45.140625 49.25 2.24900436401367188 -0.899555027484893799 0.431066840887069702 0.0705849379301071167
44.203125 49.90625 2.42200088500976562 -0.87288057804107666 0.484243988990783691 0.0598943606019020081
43.796875 49.9375 2.32699966430664062 -0.890211224555969238 0.452064365148544312 0.0562301650643348694
43.5 50.1875 2.28599929809570312 -0.891304135322570801 0.452688127756118774 0.0255021639168262482
43.140625 50.3125 2.30099868774414062 -0.89534991979598999 0.445213347673416138 0.0115501033142209053
42.78125 50.375 2.43700027465820312 -0.888088464736938477 0.458803027868270874 0.0282602608203887939
41.703125 51 2.41399765014648438 -0.912451684474945068 0.407250553369522095 0.0397371724247932434
40.046875 51.78125 2.56499862670898438 -0.928373098373413086 0.366364717483520508 0.0624525994062423706
39.75 52 2.55500411987304688 -0.908615231513977051 0.411044567823410034 0.0738966241478919983
38.796875 52.53125 2.60599899291992188 -0.865693747997283936 0.498978614807128906 0.0399343781173229218
38.390625 52.5 2.70700454711914062 -0.902809381484985352 0.423776626586914062 0.0731348246335983276
38.0625 52.8125 2.62600326538085938 -0.885797560214996338 0.456039130687713623 0.0859709605574607849
36.78125 53.53125 2.77199935913085938 -0.864161908626556396 0.503003776073455811 0.014540964737534523
36.359375 53.65625 2.80700302124023438 -0.868906557559967041 0.492466956377029419 -0.0497764572501182556
35.140625 54.1875 2.81399917602539062 -0.939354658126831055 0.340343981981277466 0.0421764180064201355
34.484375 54.46875 2.90500259399414062 -0.918440818786621094 0.376473814249038696 0.121383227407932281
34.15625 54.6875 2.88700485229492188 -0.915354251861572266 0.393229037523269653 0.0865884050726890564
33.875 54.9375 2.93999862670898438 -0.912508845329284668 0.399250388145446777 0.0890322700142860413
33.5 55.0625 2.95599746704101562 -0.889296591281890869 0.45349845290184021 0.0590826980769634247
32.84375 55.3125 3.00699996948242188 -0.888732612133026123 0.454796075820922852 0.0575758963823318481
32.578125 55.5625 2.99799728393554688 -0.865691006183624268 0.497010797262191772 0.0596604682505130768
32.21875 55.625 3.01800155639648438 -0.88300400972366333 0.467348158359527588 0.0434689931571483612
31.25 56.15625 3.08099746704101562 -0.904411017894744873 0.423501968383789062 0.0518344007432460785
30.9375 56.375 3.13100051879882812 -0.941453158855438232 0.332612723112106323 0.0550884008407592773
30.28125 56.6875 3.13900375366210938 -0.87716972827911377 0.474630236625671387 0.0727964863181114197
29.90625 56.75 3.18300247192382812 -0.908583879470825195 0.412229150533676147 0.0673982575535774231
28.921875 57.1875 3.29000473022460938 -0.851483821868896484 0.517349064350128174 0.0855879858136177063
28.65625 57.46875 3.30299758911132812 -0.906311988830566406 0.418332725763320923 0.0599696449935436249
28.03125 57.8125 3.37900161743164062 -0.921475648880004883 0.364250659942626953 0.13492274284362793
27.375 58.1875 3.42900466918945312 -0.88939511775970459 0.447432518005371094 0.0937040746212005615
26.6875 58.5 3.39300155639648438 -0.925033390522003174 0.377494931221008301 0.0425529666244983673
25.65625 58.84375 3.43899917602539062 -0.826298713684082031 0.55724644660949707 0.081895098090171814
25.421875 59.0625 3.56200027465820312 -0.8934592604637146 0.445874243974685669 0.0540988296270370483
24.359375 59.65625 3.57000350952148438 -0.897499799728393555 0.437329739332199097 0.0568922236561775208
23.890625 59.6875 3.55400466918945312 -0.911210596561431885 0.402268201112747192 0.0887446179986000061
23.53125 59.90625 3.60200119018554688 -0.949198663234710693 0.313188314437866211 0.0305790193378925323
22.875 60.34375 3.66600418090820312 -0.897006392478942871 0.435618281364440918 0.0749419853091239929
22.3125 60.6875 3.79899978637695312 -0.919723153114318848 0.382599383592605591 0.0879037603735923767
21.921875 60.75 3.71999740600585938 -0.930585145950317383 0.358514487743377686 0.0740183517336845398
21.625 60.84375 3.85799789428710938 -0.934687972068786621 0.341766953468322754 0.0977432802319526672
20.984375 61.125 3.85899734497070312 -0.893866062164306641 0.445997953414916992 0.0457081831991672516
20.671875 61.3125 3.85100173950195312 -0.910702347755432129 0.405852258205413818 0.076844729483127594
20.359375 61.46875 3.89200210571289062 -0.904219686985015869 0.422766923904418945 0.0604549385607242584
20.078125 61.6875 3.86700057983398438 -0.882017791271209717 0.465305060148239136 0.0744033753871917725
19.71875 61.75 3.96799850463867188 -0.904445886611938477 0.425164967775344849 0.0348188728094100952
19.359375 61.96875 3.94099807739257812 -0.895687878131866455 0.436514884233474731 0.0848404467105865479
19.078125 62.21875 4.02800369262695312 -0.917491316795349121 0.386085063219070435 0.0956455320119857788
18.6875 62.28125 3.95499801635742188 -0.849985241889953613 0.511852145195007324 0.124629311263561249
18.21875 62.65625 4.00899887084960938 -0.858191549777984619 0.511277377605438232 0.0458556599915027618
16.953125 63.1875 4.19600296020507812 -0.890318930149078369 0.440723925828933716 0.114431694149971008
16.578125 63.40625 4.19400405883789062 -0.920631110668182373 0.376668274402618408 0.102758646011352539
15.078125 64.15625 4.40500259399414062 -0.835860550403594971 0.540255367755889893 -0.0972691923379898071
14.703125 64.34375 4.38100051879882812 -0.894327342510223389 0.446266740560531616 0.032010342925786972
13.6875 64.78125 4.42200088500976562 -0.91361689567565918 0.403455495834350586 0.050278201699256897
13.359375 64.9375 4.38399887084960938 -0.927603483200073242 0.346456348896026611 0.139713510870933533
12.125 65.625 4.49499893188476562 -0.909812390804290771 0.40896114706993103 0.0706547275185585022
11.75 65.71875 4.54899978637695312 -0.859701871871948242 0.508054137229919434 0.0528558008372783661
11.0625 66.0625 4.58900070190429688 -0.815577447414398193 0.576119899749755859 -0.0540297664701938629
10.8125 66.3125 4.66800308227539062 -0.891064286231994629 0.453430742025375366 0.0201265793293714523
10.46875 66.5 4.51400375366210938 -0.890846192836761475 0.42390933632850647 0.163382872939109802
10.1875 66.5625 4.71500015258789062 -0.893452882766723633 0.437585264444351196 0.101296879351139069
9.125 67 4.79600143432617188 -0.869246840476989746 0.486070781946182251 0.0902504771947860718
8.4375 67.40625 4.86600112915039062 -0.860226273536682129 0.503893256187438965 0.0781187713146209717
8.0625 67.53125 4.86999893188476562 -0.850281178951263428 0.522745490074157715 0.0613118745386600494
7.71875 67.6875 4.90400314331054688 -0.672681927680969238 0.738942205905914307 -0.0382555834949016571
7.25 68.125 5.04600143432617188 -0.886459589004516602 0.454375773668289185 0.0879327952861785889
6.546875 68.34375 4.95800399780273438 -0.905642867088317871 0.421961039304733276 0.0419501736760139465
6.234375 68.46875 4.98299789428710938 -0.935341536998748779 0.344063222408294678 0.08219948410987854
4.859375 69.21875 5.13399887084960938 -0.862302601337432861 0.504397869110107422 0.0449109449982643127
4.234375 69.5625 5.17900466918945312 -0.906766176223754883 0.420628905296325684 0.0290935356169939041
3.890625 69.71875 5.21599960327148438 -0.881879150867462158 0.468805432319641113 0.0501057729125022888
2.859375 70.21875 5.29700088500976562 -0.923344790935516357 0.376102447509765625 0.0773385986685752869
2.53125 70.375 5.36600112915039062 -0.892230212688446045 0.429258197546005249 0.14022381603717804
1.890625 70.6875 5.44300460815429688 -0.91464698314666748 0.380173295736312866 0.137437954545021057
0.921875 71 5.58400344848632812 -0.848987162113189697 0.525687456130981445 0.0536053963005542755
0.578125 71.21875 5.59399795532226562 -0.889472901821136475 0.444378495216369629 0.106610029935836792
0.203125 71.46875 5.58800125122070312 -0.981328070163726807 0.138524070382118225 0.133440852165222168
144.90625 0.1875 0.644001007080078125 -0.952850341796875 0.302000612020492554 -0.0295269321650266647
144.375 0.34375 0.687000274658203125 -0.88140261173248291 0.472297459840774536 -0.00803262833505868912
144.296875 0.625 0.62200164794921875 -0.871219873428344727 0.487575739622116089 -0.0569713003933429718
143.875 0.65625 0.518001556396484375 -0.897548139095306396 0.434788405895233154 -0.073256373405456543
143.75 0.90625 0.617000579833984375 -0.850901484489440918 0.522421002388000488 -0.0551620535552501678
143.421875 0.78125 0.5780029296875 -0.926705420017242432 0.373004913330078125 -0.0456557385623455048
143.3125 1.03125 0.61100006103515625 -0.916826307773590088 0.399278461933135986 0.0024848603643476963
142.859375 1.125 0.59799957275390625 -0.929888606071472168 0.366428643465042114 -0.032204553484916687
141.359375 1.875 0.509002685546875 -0.884110093116760254 0.466399401426315308 -0.028650941327214241
140.765625 2.1875 0.51200103759765625 -0.884657680988311768 0.46611708402633667 -0.0107490690425038338
140.203125 2.40625 0.547000885009765625 -0.903169751167297363 0.427953034639358521 0.0337710566818714142
140.09375 2.65625 0.562999725341796875 -0.877380132675170898 0.476141124963760376 0.059107072651386261
139.5625 2.84375 0.4589996337890625 -0.877934038639068604 0.478781133890151978 -0.000589343660976737738
139.015625 3.03125 0.534000396728515625 -0.876770853996276855 0.47526976466178894 -0.0734271630644798279
138.4375 3.4375 0.465000152587890625 -0.920061409473419189 0.391756772994995117 0.00371287739835679531
137.9375 3.65625 0.502002716064453125 -0.906354129314422607 0.422068774700164795 -0.0194937977939844131
137.546875 3.71875 0.434001922607421875 -0.924537777900695801 0.378513485193252563 -0.0442429743707180023
137.421875 3.96875 0.483001708984375 -0.904521584510803223 0.425675660371780396 -0.0253145042806863785
137.078125 3.875 0.462001800537109375 -0.935313045978546143 0.352411717176437378 -0.0315520167350769043
137 4.15625 0.4120025634765625 -0.882604360580444336 0.469628036022186279 -0.0214262437075376511
136.546875 4.28125 0.437999725341796875 -0.915924072265625 0.397651344537734985 -0.0543739832937717438
135.96875 4.65625 0.474002838134765625 -0.92225039005279541 0.384669870138168335 -0.0385152101516723633
135.578125 4.625 0.393001556396484375 -0.923833310604095459 0.382055371999740601 -0.0237857885658740997
135.453125 4.90625 0.45800018310546875 -0.953468263149261475 0.300270527601242065 -0.0271276179701089859
134.96875 5.0625 0.40399932861328125 -0.903845071792602539 0.426346302032470703 -0.0359586812555789948
134.484375 5.25 0.375 -0.893185675144195557 0.448207497596740723 -0.0364594459533691406
134.359375 5.5 0.47299957275390625 -0.871151149272918701 0.490887254476547241 0.0111977634951472282
133.921875 5.5625 0.391002655029296875 -0.875923097133636475 0.480387330055236816 -0.0445720329880714417
133.328125 5.9375 0.474002838134765625 -0.906579315662384033 0.421636730432510376 -0.0183473899960517883
132.796875 6.125 0.409000396728515625 -0.909407436847686768 0.415903925895690918 0.00141935131978243589
132.265625 6.28125 0.41400146484375 -0.917288601398468018 0.397776305675506592 -0.0188603941351175308
132.15625 6.53125 0.447002410888671875 -0.920231640338897705 0.391340523958206177 -0.00511705828830599785
131.703125 6.625 0.30300140380859375 -0.906445801258087158 0.42232215404510498 8.90765077201649547e-05
131.125 6.84375 0.3560028076171875 -0.908640623092651367 0.415374696254730225 -0.0428493767976760864
131.015625 7.09375 0.406002044677734375 -0.916259288787841797 0.40034756064414978 -0.0138094322755932808
130.546875 7.125 0.325000762939453125 -0.886304616928100586 0.463023096323013306 -0.00858020223677158356
130.421875 7.375 0.423999786376953125 -0.861217975616455078 0.507801711559295654 0.0210003424435853958
129.890625 7.5625 0.36100006103515625 -0.877650797367095947 0.479286104440689087 -0.00373686244711279869
128.8125 8.0625 0.33100128173828125 -0.895262002944946289 0.444219917058944702 -0.0342742130160331726
128.703125 8.28125 0.395999908447265625 -0.930441498756408691 0.355070024728775024 -0.0905758365988731384
128.421875 8.1875 0.284999847412109375 -0.929456591606140137 0.362577736377716064 -0.068175874650478363
128.28125 8.4375 0.350002288818359375 -0.948387503623962402 0.299299836158752441 -0.104788869619369507
127.921875 8.53125 0.309001922607421875 -0.90493619441986084 0.423459380865097046 -0.0421024002134799957
127.484375 8.65625 0.35900115966796875 -0.900638818740844727 0.433898329734802246 0.0241240877658128738
127.40625 8.9375 0.294002532958984375 -0.851664125919342041 0.522574484348297119 -0.0397998429834842682
127.015625 8.90625 0.24700164794921875 -0.911257445812225342 0.408509582281112671 -0.0522465817630290985
126.859375 9.15625 0.36199951171875 -0.885422050952911377 0.464708209037780762 0.00860310625284910202
126.421875 9.25 0.312999725341796875 -0.907344818115234375 0.417041867971420288 -0.0529283210635185242
125.78125 9.625 0.367000579833984375 -0.91405642032623291 0.394063115119934082 -0.0959951430559158325
125.203125 9.90625 0.31999969482421875 -0.862838208675384521 0.505058467388153076 0.020639512687921524
124.671875 10.09375 0.23699951171875 -0.835763752460479736 0.544142544269561768 0.0735371038317680359
124 10.53125 0.322002410888671875 -0.91738969087600708 0.397602677345275879 -0.0175536833703517914
123.4375 10.8125 0.292999267578125 -0.891443312168121338 0.45297357439994812 -0.0119941402226686478
122.9375 10.9375 0.29199981689453125 -0.923653125762939453 0.382973045110702515 -0.0140217877924442291
122.421875 11.21875 0.3170013427734375 -0.913017451763153076 0.405467599630355835 -0.0446665212512016296
122.046875 11.375 0.281002044677734375 -0.892162501811981201 0.449856996536254883 0.0409233197569847107
121.53125 11.71875 0.296001434326171875 -0.918726027011871338 0.393332690000534058 -0.035098634660243988
121.015625 11.96875 0.321002960205078125 -0.923370897769927979 0.38294634222984314 -0.0271706320345401764
120.515625 12.09375 0.239002227783203125 -0.861562550067901611 0.506636559963226318 -0.0320856496691703796
120.375 12.34375 0.31999969482421875 -0.885516107082366943 0.463657408952713013 -0.0297169946134090424
119.8125 12.46875 0.305999755859375 -0.888628661632537842 0.454602748155593872 0.0606255829334259033
119.703125 12.71875 0.30699920654296875 -0.830512344837188721 0.556952178478240967 0.00731185544282197952
119.21875 12.8125 0.09799957275390625 -0.888179540634155273 0.3783244788646698 -0.260782718658447266
119.046875 13.03125 0.3430023193359375 -0.850512921810150146 0.525829672813415527 -0.0114439781755208969
118.609375 13.03125 0.252002716064453125 -0.902153074741363525 0.431382864713668823 -0.00534918438643217087
118.453125 13.28125 0.4010009765625 -0.83104395866394043 0.526502013206481934 0.179336532950401306
118.15625 13.1875 0.173999786376953125 -0.890947699546813965 0.452860623598098755 0.0336062014102935791
118.03125 13.4375 0.239002227783203125 -0.858005821704864502 0.513529658317565918 0.0106476657092571259
117.609375 13.5625 0.27700042724609375 -0.840484499931335449 0.535236001014709473 0.0843115001916885376
117.46875 13.8125 0.391002655029296875 -0.923826396465301514 0.371970564126968384 -0.0904577523469924927
117.109375 13.875 0.2220001220703125 -0.93647390604019165 0.349483102560043335 -0.0296341255307197571
116.53125 14.21875 0.23600006103515625 -0.933702826499938965 0.356709927320480347 -0.0309359431266784668
115.9375 14.5 0.254001617431640625 -0.892769932746887207 0.450370043516159058 -0.0113436542451381683
115.265625 14.90625 0.25099945068359375 -0.888104379177093506 0.454516351222991943 0.0684516057372093201
114.796875 14.9375 0.22299957275390625 -0.874141156673431396 0.485187351703643799 0.0216892901808023453
114.6875 15.1875 0.22299957275390625 -0.8875008225440979 0.459844619035720825 0.0297524556517601013
114.203125 15.21875 0.31800079345703125 -0.923527061939239502 0.383532136678695679 -0.000942103215493261814
113.71875 15.46875 0.2779998779296875 -0.925116896629333496 0.379486173391342163 -0.0122080361470580101
113.21875 15.75 0.238002777099609375 -0.902870476245880127 0.428436130285263062 -0.0356018655002117157
112.71875 16.03125 0.18199920654296875 -0.870704233646392822 0.491704672574996948 -0.010034460574388504
112.171875 16.3125 0.2350006103515625 -0.897256791591644287 0.43838036060333252 0.0524676255881786346
111.640625 16.59375 0.2740020751953125 -0.918023407459259033 0.391897320747375488 0.0604121647775173187
111.09375 16.78125 0.354000091552734375 -0.898868381977081299 0.43434828519821167 0.0581142939627170563
110.515625 17.15625 0.281002044677734375 -0.902813971042633057 0.423913508653640747 -0.0722789764404296875
110 17.3125 0.220001220703125 -0.897844552993774414 0.432995229959487915 -0.0799396485090255737
109.859375 17.5625 0.335002899169921875 -0.888680160045623779 0.457394063472747803 -0.0322219990193843842
109.40625 17.625 0.282001495361328125 -0.907713651657104492 0.417355120182037354 -0.0432508289813995361
108.796875 17.96875 0.269001007080078125 -0.900722205638885498 0.434380888938903809 0.00357071333564817905
108.296875 18.09375 0.26200103759765625 -0.90835040807723999 0.418161273002624512 -0.00636873627081513405
108.203125 18.34375 0.214000701904296875 -0.91581958532333374 0.401574194431304932 0.00357081415131688118
107.703125 18.46875 0.2610015869140625 -0.894803285598754883 0.446052342653274536 0.0190890617668628693
107.140625 18.75 0.295001983642578125 -0.909500658512115479 0.415623247623443604 0.00811865832656621933
106.53125 19.09375 0.354999542236328125 -0.927798271179199219 0.372900396585464478 -0.011644093319773674
106 19.375 0.30500030517578125 -0.923174202442169189 0.384346544742584229 0.00520277069881558418
105.46875 19.53125 0.3339996337890625 -0.90971672534942627 0.415211409330368042 -0.00386201683431863785
104.875 20 0.284000396728515625 -0.879857480525970459 0.475234001874923706 -0.00183822191320359707
104.375 20.09375 0.296001434326171875 -0.867143392562866211 0.496627569198608398 -0.0377263873815536499
103.828125 20.3125 0.363002777099609375 -0.82142794132232666 0.440470665693283081 -0.362273037433624268
103.703125 20.5625 0.395000457763671875 -0.865637063980102539 0.493525028228759766 0.0842940881848335266
103.28125 20.65625 0.298999786376953125 -0.895268678665161133 0.445447593927383423 0.00839479733258485794
102.734375 20.875 0.29000091552734375 -0.846475064754486084 0.525880634784698486 0.0832434520125389099
102.625 21.125 0.30699920654296875 -0.785379648208618164 0.5891876220703125 0.189833283424377441
102.1875 21.125 0.246002197265625 -0.89892125129699707 0.434127539396286011 0.0589394904673099518
102.03125 21.34375 0.378002166748046875 -0.891066133975982666 0.449889332056045532 0.0600062757730484009
101.46875 21.59375 0.3470001220703125 -0.861484885215759277 0.507134914398193359 0.0256520882248878479
100.890625 21.9375 0.292999267578125 -0.895673632621765137 0.444698333740234375 0.0034855168778449297
100.390625 22.03125 0.2870025634765625 -0.918332755565643311 0.395788282155990601 0.00407208316028118134
100.25 22.28125 0.3860015869140625 -0.905014932155609131 0.425148546695709229 0.0140232369303703308
99.765625 22.5 0.3600006103515625 -0.884662985801696777 0.464402765035629272 0.0412500239908695221
99.265625 22.6875 0.36100006103515625 -0.893987894058227539 0.448091030120849609 -0.000358233664883300662
98.734375 23 0.340000152587890625 -0.886498034000396729 0.462295562028884888 -0.0200984403491020203
98.21875 23.21875 0.326000213623046875 -0.942103743553161621 0.335219860076904297 0.00825654622167348862
97.703125 23.4375 0.366001129150390625 -0.908909738063812256 0.416420340538024902 0.0218457169830799103
97.171875 23.6875 0.32900238037109375 -0.894071042537689209 0.446899920701980591 0.03028891421854496
96.625 23.90625 0.37200164794921875 -0.911438047885894775 0.411020129919052124 0.0185217596590518951
96.515625 24.15625 0.3560028076171875 -0.827492833137512207 0.561154484748840332 0.0190053544938564301
96.015625 24.3125 0.353000640869140625 -0.876809418201446533 0.480802148580551147 0.00587181048467755318
94.828125 24.90625 0.463001251220703125 -0.894489526748657227 0.447039633989334106 0.00663049379363656044
94.3125 25.15625 0.419002532958984375 -0.888790369033813477 0.455159187316894531 0.0536814592778682709
93.765625 25.3125 0.491001129150390625 -0.920417249202728271 0.387706965208053589 0.0501538626849651337
93.671875 25.5625 0.4420013427734375 -0.885512769222259521 0.46380990743637085 0.0273407939821481705
93.140625 25.71875 0.434001922607421875 -0.910278856754302979 0.405107468366622925 0.0853254050016403198
92.484375 26.0625 0.483001708984375 -0.902687489986419678 0.427410274744033813 -0.0497561916708946228
91.90625 26.3125 0.490001678466796875 -0.872433185577392578 0.486699461936950684 -0.0445429198443889618
91.421875 26.5 0.298999786376953125 -0.902128815650939941 0.402301281690597534 -0.155939936637878418
91.234375 26.75 0.51200103759765625 -0.895129263401031494 0.445140659809112549 0.0243625137954950333
90.859375 26.78125 0.40200042724609375 -0.936660528182983398 0.345315724611282349 0.0585159696638584137
90.34375 27 0.4810028076171875 -0.898327171802520752 0.425954192876815796 0.107569940388202667
89.765625 27.25 0.599002838134765625 -0.894602298736572266 0.441206127405166626 0.0708795785903930664
89.65625 27.5 0.56500244140625 -0.90708392858505249 0.41971781849861145 0.0321821682155132294
89.203125 27.71875 0.492000579833984375 -0.871039807796478271 0.490564793348312378 0.0252155475318431854
88.6875 27.84375 0.54000091552734375 -0.888361155986785889 0.458746492862701416 0.0191345773637294769
88.109375 28.15625 0.53800201416015625 -0.920533478260040283 0.390557587146759033 0.0091097736731171608
87.59375 28.3125 0.589000701904296875 -0.892488062381744385 0.45044630765914917 0.0237307045608758926
87.453125 28.5625 0.655002593994140625 -0.896923363208770752 0.441340088844299316 -0.027340669184923172
87.078125 28.625 0.535999298095703125 -0.824770450592041016 0.561779558658599854 0.0644782856106758118
86.5625 28.875 0.559001922607421875 -0.805977880954742432 0.59193044900894165 -0.00424505909904837608
86.421875 29.125 0.642002105712890625 -0.833277225494384766 0.5470389723777771 0.0799832791090011597
85.90625 29.40625 0.585002899169921875 -0.871510565280914307 0.490065842866897583 0.0174641478806734085
85.390625 29.5 0.629001617431640625 -0.872836172580718994 0.487781345844268799 0.0150493793189525604
84.859375 29.71875 0.56999969482421875 -0.899182498455047607 0.437358707189559937 0.0137166734784841537
84.71875 29.96875 0.652004241943359375 -0.868976891040802002 0.493701040744781494 0.0337417200207710266
84.140625 30.125 0.59200286865234375 -0.871015012264251709 0.490436345338821411 0.0283733177930116653
83.5 30.375 0.688999176025390625 -0.881421506404876709 0.470108121633529663 0.045765995979309082
82.8125 30.78125 0.755001068115234375 -0.899558782577514648 0.433068543672561646 0.0569705106317996979
82.21875 31.125 0.719997406005859375 -0.870690345764160156 0.490677803754806519 0.0336709097027778625
81.65625 31.375 0.693004608154296875 -0.814505815505981445 0.57638394832611084 0.0660441145300865173
81.03125 31.6875 0.754001617431640625 -0.924504578113555908 0.380958825349807739 -0.0127193694934248924
80.453125 32 0.805004119873046875 -0.863988220691680908 0.500442147254943848 0.0555154569447040558
80.015625 32.15625 0.731998443603515625 -0.878612816333770752 0.476725131273269653 0.0277984719723463058
79.421875 32.5625 0.811000823974609375 -0.890426278114318848 0.45495760440826416 0.0124384611845016479
78.984375 32.65625 0.770999908447265625 -0.885289967060089111 0.464866101741790771 0.0126961516216397285
78.515625 32.8125 0.763004302978515625 -0.841567456722259521 0.539778649806976318 0.0200793743133544922
78.390625 33.0625 0.796001434326171875 -0.919950902462005615 0.390871673822402954 0.0301629789173603058
77.859375 33.28125 0.777004241943359375 -0.848964512348175049 0.527965843677520752 0.022614235058426857
77.28125 33.46875 0.848003387451171875 -0.885012626647949219 0.461231887340545654 0.0633849203586578369
76.546875 33.875 0.946002960205078125 -0.876021325588226318 0.470843881368637085 0.104367867112159729
75.9375 34.21875 0.898998260498046875 -0.876302361488342285 0.48029366135597229 0.0375791341066360474
75.3125 34.53125 0.924999237060546875 -0.920887649059295654 0.389552444219589233 -0.0146572161465883255
74.9375 34.53125 0.902004241943359375 -0.87337791919708252 0.484174430370330811 0.0527842454612255096
74.796875 34.78125 0.950000762939453125 -0.889830589294433594 0.449263840913772583 0.0797725692391395569
74.390625 34.84375 0.895000457763671875 -0.864865541458129883 0.485206931829452515 0.128770202398300171
74.25 35.09375 0.960002899169921875 -0.855574309825897217 0.517261743545532227 0.0208042748272418976
73.78125 35.21875 0.981998443603515625 -0.911254465579986572 0.410800069570541382 0.0292992498725652695
73.59375 35.4375 1.16299819946289062 -0.889275074005126953 0.451205283403396606 0.0748569592833518982
73.125 35.5625 1.01800155639648438 -0.910378515720367432 0.412863194942474365 0.0274773668497800827
72.515625 35.84375 1.00699996948242188 -0.903864681720733643 0.427349656820297241 0.0200217701494693756
71.875 36.15625 1.00400161743164062 -0.889609634876251221 0.455843985080718994 0.0282999109476804733
71.265625 36.5 0.996997833251953125 -0.895539700984954834 0.443829387426376343 0.0320044457912445068
70.625 36.78125 1.10100173950195312 -0.891092240810394287 0.452920466661453247 -0.02859480120241642
70.09375 37.03125 1.08600234985351562 -0.915479898452758789 0.400284647941589355 0.0408489257097244263
69.609375 37.1875 1.09499740600585938 -0.899484753608703613 0.436522632837295532 0.0193698033690452576
69.46875 37.4375 1.12900161743164062 -0.873649299144744873 0.485997974872589111 0.0232989117503166199
69.109375 37.4375 1.11500167846679688 -0.926491856575012207 0.375462710857391357 0.0253104027360677719
68.96875 37.6875 1.16500473022460938 -0.912556052207946777 0.408950001001358032 -0.00121033471077680588
68.53125 37.90625 1.11600112915039062 -0.850835204124450684 0.525396585464477539 -0.00615416374057531357
68.109375 37.9375 1.12700271606445312 -0.896802008152008057 0.441685408353805542 0.025693083181977272
67.96875 38.1875 1.15999984741210938 -0.924293637275695801 0.381569832563400269 0.00926007237285375595
67.34375 38.53125 1.23500442504882812 -0.857872605323791504 0.510210931301116943 0.0611492060124874115
66.921875 38.5625 1.09600448608398438 -0.89641118049621582 0.441855579614639282 0.0347932279109954834
66.734375 38.78125 1.29300308227539062 -0.882338285446166992 0.465989112854003906 0.0658274814486503601
66.15625 39 1.27900314331054688 -0.880267083644866943 0.470098137855529785 0.0643243193626403809
65.4375 39.40625 1.32300186157226562 -0.891265988349914551 0.45340043306350708 -0.00854724831879138947
64.90625 39.46875 1.33600234985351562 -0.903455376625061035 0.428634464740753174 0.00639764405786991119
64.765625 39.71875 1.38499832153320312 -0.910128533840179443 0.413872748613357544 -0.0193738583475351334
64.265625 39.90625 1.24000167846679688 -0.905154526233673096 0.425059914588928223 -0.00439819227904081345
63.609375 40.25 1.35499954223632812 -0.884154856204986572 0.467184334993362427 0.00298198871314525604
63.0625 40.53125 1.32000350952148438 -0.825714409351348877 0.55538177490234375 0.0987259149551391602
62.5 40.75 1.35599899291992188 -0.895555257797241211 0.443209588527679443 0.0393201150000095367
62.375 41 1.40500259399414062 -0.849687814712524414 0.521256983280181885 0.0795091837644577026
61.875 41.09375 1.40100479125976562 -0.910725235939025879 0.408807456493377686 0.0587867759168148041
61.3125 41.4375 1.42699813842773438 -0.918282747268676758 0.39427715539932251 0.0360879488289356232
60.265625 41.875 1.49300003051757812 -0.905057907104492188 0.424024015665054321 0.0327713042497634888
59.703125 42.1875 1.44800186157226562 -0.888872265815734863 0.457839310169219971 0.0170090831816196442
59.1875 42.34375 1.51800155639648438 -0.882415473461151123 0.468887269496917725 0.0385702289640903473
58.46875 42.8125 1.55400466918945312 -0.89197927713394165 0.451472759246826172 0.0233510639518499374
57.8125 43.125 1.60699844360351562 -0.895074844360351562 0.440274745225906372 -0.0707051903009414673
57.265625 43.28125 1.59299850463867188 -0.89286351203918457 0.44683876633644104 0.0559439845383167267
57.140625 43.53125 1.60899734497070312 -0.885172367095947266 0.461941063404083252 0.0555001795291900635
56.6875 43.5625 1.64200210571289062 -0.872870802879333496 0.484983921051025391 0.0537327304482460022
56.53125 43.8125 1.70700454711914062 -0.871152400970458984 0.486378759145736694 0.067300751805305481
56.015625 44 1.69500350952148438 -0.888722598552703857 0.457107275724411011 0.0350007154047489166
55.46875 44.28125 1.69800186157226562 -0.88230288028717041 0.470650076866149902 0.00549652287736535072
54.9375 44.46875 1.68200302124023438 -0.870680689811706543 0.491243600845336914 0.0243900809437036514
54.28125 44.84375 1.79800033569335938 -0.905453383922576904 0.423988759517669678 0.0196889210492372513
53.703125 45.1875 1.76800155639648438 -0.860122025012969971 0.508926510810852051 0.0344077534973621368
51.9375 46.09375 1.79700088500976562 -0.86607813835144043 0.49914085865020752 -0.0276964176446199417
51.34375 46.28125 1.90800094604492188 -0.88603520393371582 0.463608443737030029 -0.00297304173000156879
50.765625 46.53125 1.89699935913085938 -0.875442087650299072 0.475597590208053589 0.0860704779624938965
50.0625 46.96875 1.99499893188476562 -0.859004676342010498 0.509517312049865723 0.0500311404466629028
49.515625 47.25 1.96400070190429688 -0.868495523929595947 0.489320248365402222 0.0792539641261100769
48.9375 47.5625 2.04000473022460938 -0.904096245765686035 0.423706322908401489 0.0555240437388420105
48.390625 47.8125 2.04500198364257812 -0.918223261833190918 0.390190213918685913 0.0679524168372154236
47.828125 48.03125 2.09499740600585938 -0.919261813163757324 0.391948312520980835 0.036527782678604126
47.15625 48.4375 2.12199783325195312 -0.921882331371307373 0.384283691644668579 0.0495878569781780243
45.90625 48.96875 2.21799850463867188 -0.88844001293182373 0.455937445163726807 0.0528711527585983276
45.4375 49.0625 2.16399765014648438 -0.841194272041320801 0.532462179660797119 0.0942141413688659668
45.265625 49.28125 2.31200027465820312 -0.873997747898101807 0.480440020561218262 0.0728380456566810608
44.6875 49.5625 2.25400161743164062 -0.871064662933349609 0.487406790256500244 0.0606713108718395233
44.078125 49.875 2.28400039672851562 -0.878856182098388672 0.475092113018035889 0.0435816720128059387
43.421875 50.21875 2.39899826049804688 -0.908538341522216797 0.416589438915252686 0.0318030864000320435
42.828125 50.59375 2.37299728393554688 -0.889432907104492188 0.456364274024963379 0.0253131389617919922
42.390625 50.6875 2.36300277709960938 -0.891039907932281494 0.451865673065185547 0.0431882739067077637
42.25 50.9375 2.36300277709960938 -0.880585134029388428 0.470541864633560181 0.0562156923115253448
41.75 51.09375 2.40200424194335938 -0.905407071113586426 0.422870278358459473 0.0376662537455558777
41.109375 51.46875 2.47400283813476562 -0.93455803394317627 0.346991181373596191 0.0787302926182746887
40.609375 51.625 2.45599746704101562 -0.906146466732025146 0.415932804346084595 0.0768008604645729065
39.9375 51.90625 2.58099746704101562 -0.91673123836517334 0.396247953176498413 0.0509051159024238586
38.765625 52.4375 2.62199783325195312 -0.897509515285491943 0.437990069389343262 0.0513952597975730896
38.640625 52.6875 2.58900070190429688 -0.860574603080749512 0.508154332637786865 0.0345039702951908112
38.109375 52.71875 2.70599746704101562 -0.88271564245223999 0.465641170740127563 0.0631777569651603699
37.984375 52.96875 2.67399978637695312 -0.858506619930267334 0.507665097713470459 0.0724045783281326294
36.65625 53.5625 2.80700302124023438 -0.885886073112487793 0.463606774806976318 0.0165756735950708389
36.125 53.6875 2.78200149536132812 -0.801233947277069092 0.592567563056945801 -0.0829923748970031738
35.984375 53.96875 2.78200149536132812 -0.930959522724151611 0.364799201488494873 0.0153538072481751442
35.40625 54.25 2.70599746704101562 -0.888004124164581299 0.45982024073600769 0.00375284813344478607
34.8125 54.4375 2.81800460815429688 -0.882538974285125732 0.464426785707473755 0.0737065523862838745
34.1875 54.71875 2.89500045776367188 -0.913529276847839355 0.397110074758529663 0.0881350189447402954
34.0625 54.96875 2.89599990844726562 -0.867675840854644775 0.489745140075683594 0.0853717327117919922
33.59375 55.03125 2.96999740600585938 -0.888524234294891357 0.454450070858001709 0.0632437914609909058
32.953125 55.375 3.01600265502929688 -0.877948641777038574 0.474195361137390137 0.065915428102016449
32.34375 55.6875 3.03400039672851562 -0.889533519744873047 0.454863011837005615 0.042775370180606842
31.71875 56.09375 3.09099960327148438 -0.909129977226257324 0.412964671850204468 0.0542476736009120941
31.28125 56.21875 3.02099990844726562 -0.905229270458221436 0.421599835157394409 0.0530410632491111755
30.734375 56.4375 3.15200424194335938 -0.946173310279846191 0.320720911026000977 0.0435208305716514587
30.59375 56.6875 3.16700363159179688 -0.840474784374237061 0.533354580402374268 0.095577336847782135
30.171875 56.71875 3.19300460815429688 -0.875864565372467041 0.47904929518699646 0.0580770410597324371
29.5 57.15625 3.22600173950195312 -0.872969090938568115 0.485914051532745361 0.0425740741193294525
28.953125 57.25 3.28100204467773438 -0.863478422164916992 0.496500611305236816 0.0888379067182540894
28.828125 57.53125 3.21500015258789062 -0.874387502670288086 0.483148425817489624 0.0448772050440311432
28.203125 57.71875 3.33700180053710938 -0.903044939041137695 0.426305294036865234 0.0526659637689590454
27.609375 58 3.31100082397460938 -0.907312154769897461 0.413042783737182617 0.0786145627498626709
27.046875 58.15625 3.40600204467773438 -0.895058751106262207 0.438901990652084351 0.0789611339569091797
26.9375 58.40625 3.32500076293945312 -0.923302352428436279 0.381746977567672729 0.0422128178179264069
26.28125 58.625 3.49499893188476562 -0.874964058399200439 0.47792208194732666 0.0776426196098327637
24.921875 59.40625 3.51300430297851562 -0.856490254402160645 0.513001859188079834 0.0570397414267063141
24.390625 59.5 3.60899734497070312 -0.861574411392211914 0.506762683391571045 0.0296849515289068222
24.25 59.78125 3.60799789428710938 -0.885852396488189697 0.458671599626541138 0.0698996782302856445
23.640625 60.03125 3.63499832153320312 -0.884674608707427979 0.463399618864059448 0.0511043444275856018
23.0625 60.28125 3.72400283813476562 -0.851668000221252441 0.509273171424865723 0.123703122138977051
22.625 60.40625 3.68899917602539062 -0.911930322647094727 0.403161346912384033 0.0764464735984802246
22.46875 60.65625 3.75400161743164062 -0.920261919498443604 0.377588480710983276 0.102688878774642944
22.015625 60.75 3.78400039672851562 -0.923254668712615967 0.376153469085693359 0.0781632289290428162
21.484375 60.9375 3.80600357055664062 -0.931112527847290039 0.361173659563064575 0.0508245266973972321
21.359375 61.1875 3.78899765014648438 -0.908239781856536865 0.413927018642425537 0.0613593943417072296
20.0625 61.75 3.89799880981445312 -0.886333286762237549 0.456269383430480957 0.078939877450466156
18.203125 62.53125 4.07899856567382812 -0.870797038078308105 0.489358514547348022 0.0473378710448741913
18.046875 62.78125 4.14400100708007812 -0.813741922378540039 0.557097673416137695 0.165729239583015442
17.4375 63.125 4.11000442504882812 -0.909308135509490967 0.410263895988464355 0.0695867687463760376
16.828125 63.4375 3.98700332641601562 -0.883431792259216309 0.460533469915390015 0.0863550156354904175
16.265625 63.5 4.18999862670898438 -0.894356310367584229 0.432269155979156494 0.115196302533149719
14.875 64.28125 4.36700057983398438 -0.739600539207458496 0.643918633460998535 -0.19585689902305603
14.359375 64.5 4.32400131225585938 -0.911725103855133057 0.408501893281936646 -0.0434011705219745636
14.25 64.78125 4.19199752807617188 -0.945622384548187256 0.323259264230728149 0.0360803492367267609
13.78125 64.78125 4.38199996948242188 -0.911171793937683105 0.410863906145095825 0.0309317894279956818
13.59375 64.96875 4.54600143432617188 -0.899549424648284912 0.431042760610580444 0.0708030834794044495
