ply
format ascii 1.0
element vertex 475
property float x
property float y
property float z
property float nx
property float ny
property float nz
end_header
3.859375 11 18.2299995422363281 -0.782992660999298096 0.609151005744934082 -0.125926569104194641
4.3125 10.34375 20.2649993896484375 0.0899447053670883179 -0.988339424133300781 -0.122861839830875397
3.703125 10.71875 18.2790012359619141 -0.957887113094329834 0.110444135963916779 -0.265055537223815918
3.640625 10.375 18.6230010986328125 -0.703539550304412842 -0.710561633110046387 -0.0115870870649814606
5.546875 13.21875 32.904998779296875 -0.704979419708251953 0.375004053115844727 -0.601976692676544189
13.3125 18.125 7.58900070190429688 0.894016385078430176 -0.427973896265029907 0.132563456892967224
12.21875 17.8125 10.6219997406005859 -0.239968135952949524 -0.944820225238800049 -0.223002195358276367
13.28125 18.46875 7.14700126647949219 0.599196493625640869 0.112551100552082062 -0.792651116847991943
12.0625 18.0625 10.5740013122558594 -0.918478548526763916 -0.173508211970329285 -0.355375766754150391
12.453125 19.8125 7.09799957275390625 0.501446545124053955 0.241731360554695129 -0.830733001232147217
10.046875 19.34375 13.3940010070800781 -0.539111137390136719 -0.837074160575866699 -0.0930914133787155151
11.3125 26.375 13.569000244140625 0.0219144411385059357 0.0956324189901351929 -0.995175480842590332
10.78125 26.3125 12.4360008239746094 0.228080078959465027 0.0197903905063867569 -0.973441243171691895
12.390625 24.8125 18.4060001373291016 0.0804585292935371399 0.222704246640205383 0.971560239791870117
10.59375 26.03125 12.4360008239746094 -0.632060647010803223 0.196825087070465088 0.749506056308746338
14.109375 23.25 24.7540016174316406 0.990886867046356201 -0.129512771964073181 -0.0370078422129154205
10.421875 25.6875 12.5349998474121094 0.195039436221122742 0.843937993049621582 0.499728292226791382
10.265625 25.375 12.6820011138916016 -0.388453662395477295 0.866790771484375 -0.312693953514099121
13.8125 22.59375 25.0830001831054688 0.335176527500152588 -0.825542330741882324 -0.454022705554962158
10.3125 24.9375 13.4360008239746094 -0.85933220386505127 -0.243415981531143188 -0.449774265289306641
10.125 25.0625 12.86199951171875 -0.618344247341156006 -0.083300270140171051 0.781480312347412109
13.578125 22.375 24.8850021362304688 0.323212176561355591 0.867899775505065918 0.377205222845077515
10.171875 24.625 13.6180000305175781 0.676669657230377197 0.479196041822433472 0.559007406234741211
9.96875 24.34375 13.569000244140625 -0.62360304594039917 -0.262602955102920532 0.736314356327056885
9.890625 24 13.9120006561279297 -0.22153860330581665 0.573028802871704102 -0.789023876190185547
11.703125 22.40625 20.5060005187988281 -0.571447312831878662 0.386437147855758667 -0.723957359790802002
9.65625 23.75 13.7639999389648438 -0.563623130321502686 -0.325874775648117065 0.759035289287567139
9.453125 23.46875 13.7000007629394531 -0.654712855815887451 0.572228372097015381 0.493868172168731689
9.328125 23.125 13.9449996948242188 -0.72403872013092041 0.496862053871154785 0.478430777788162231
12.8125 20.40625 26.0830001831054688 -0.00389909208752214909 -0.883488178253173828 -0.468437224626541138
9.234375 22.78125 14.2900009155273438 -0.516783356666564941 0.738370120525360107 -0.433294951915740967
12.53125 20.1875 25.7880020141601562 0.719994902610778809 0.352974921464920044 0.59750819206237793
9.125 22.4375 14.5520000457763672 -0.935266435146331787 0.282791376113891602 0.212851569056510925
12.359375 19.90625 25.8370018005371094 -0.0169790703803300858 -0.684545278549194336 0.728772521018981934
12.03125 20.125 24.7379989624023438 -0.157014399766921997 -0.52172243595123291 0.838541686534881592
9.015625 22.09375 14.7819995880126953 -0.287686198949813843 0.766059339046478271 0.574795365333557129
10.625 20.65625 20.6870002746582031 -0.414361923933029175 -0.784772753715515137 -0.46090775728225708
8.8125 21.84375 14.7159996032714844 -0.911941707134246826 -0.0827967375516891479 0.401879400014877319
10.015625 20.65625 19.2930011749267578 -0.317051291465759277 -0.807912290096282959 0.496745526790618896
8.65625 21.5625 14.7819995880126953 -0.720229804515838623 0.693262457847595215 -0.0256164316087961197
9.4375 20.625 17.9799995422363281 0.0452366657555103302 -0.995229899883270264 -0.0864356681704521179
8.640625 20.71875 15.9950008392333984 0.0247465893626213074 -0.147329911589622498 0.988777756690979004
8.28125 20.96875 14.7819995880126953 -0.752541303634643555 0.551983952522277832 -0.359159290790557861
8.109375 20.65625 14.8959999084472656 -0.993702232837677002 0.0187805518507957458 0.110467627644538879
9.828125 19.5625 13.5580005645751953 -0.816485345363616943 -0.577360928058624268 -0.00245245173573493958
9.640625 19.8125 13.6400012969970703 -0.814791023731231689 -0.557586193084716797 -0.15878644585609436
5.859375 14.84375 18.3090000152587891 -0.578737258911132812 0.684877216815948486 0.442726105451583862
8.78125 12.625 28.3959999084472656 0.89645838737487793 0.239312782883644104 0.372950315475463867
8.171875 13 26.3950004577636719 0.275491654872894287 0.912755250930786133 -0.301632463932037354
6.03125 14.34375 19.4080009460449219 0.610253214836120605 0.507011234760284424 -0.608712255954742432
5.703125 14.5625 18.3409996032714844 -0.563942372798919678 0.543163001537322998 0.622047305107116699
8.59375 12.375 28.3310012817382812 0.399926543235778809 -0.91135329008102417 0.0974374040961265564
8.46875 12.0625 28.4939994812011719 0.777287065982818604 0.0574569739401340485 -0.626517057418823242
5.3125 14.03125 18.2280006408691406 -0.050791371613740921 0.796636104583740234 0.602321386337280273
5.140625 13.75 18.2439994812011719 -0.47378501296043396 0.790545880794525146 0.388027042150497437
4.96875 13.4375 18.2600002288818359 -0.665607869625091553 0.746168792247772217 0.0140824504196643829
5.46875 12.71875 20.4900016784667969 0.801904916763305664 0.204547107219696045 -0.561345696449279785
4.875 13.09375 18.5550003051757812 -0.884538710117340088 0.454759806394577026 -0.103849656879901886
7.984375 10.75 29.2490005493164062 0.53516310453414917 -0.737824440002441406 -0.411358386278152466
4.6875 12.8125 18.5389995574951172 -0.65929710865020752 0.505981028079986572 0.556157052516937256
7.75 10.5 29.0849990844726562 0.75886911153793335 -0.522997140884399414 -0.388061463832855225
5.125 12.15625 20.5240020751953125 0.851228535175323486 0.0670544952154159546 0.520493805408477783
4.46875 12.5625 18.3910007476806641 -0.649761974811553955 0.0567339956760406494 0.758017599582672119
7.53125 10.25 28.9210014343261719 0.908224940299987793 0.236159592866897583 0.345479607582092285
4.375 12.21875 18.6700000762939453 -0.930270552635192871 0.341547220945358276 0.133948326110839844
4.359375 11.84375 19.1620006561279297 -0.866956174373626709 0.487373977899551392 0.104180611670017242
4.59375 11.3125 20.4739990234375 0.508836865425109863 0.785700857639312744 -0.351794242858886719
4.265625 11.53125 19.4249992370605469 -0.563868820667266846 0.793757736682891846 0.22803632915019989
7.09375 9.375 29.2010002136230469 -0.545049488544464111 -0.342127740383148193 0.765421271324157715
6.546875 9.71875 27.3950004577636719 -0.761934816837310791 -0.605715036392211914 0.229269996285438538
5.84375 9.75 25.707000732421875 0.298893153667449951 -0.744704663753509521 0.596722543239593506
5.15625 10.1875 23.4930000305175781 0.803207516670227051 0.285119324922561646 -0.523034155368804932
4.03125 10.46875 20.4099998474121094 -0.779826939105987549 -0.456768065690994263 0.428057044744491577
9.0625 20.1875 14.3950004577636719 -0.110678128898143768 -0.993733465671539307 0.015623806044459343
8.78125 20.375 14.7390003204345703 0.414708882570266724 -0.433724343776702881 0.79993736743927002
8.578125 20.625 14.8700008392333984 0.443281233310699463 -0.69316178560256958 0.568355917930603027
8.359375 20.8125 15.0830001831054688 -0.278932929039001465 0.0162236504256725311 0.960173547267913818
8.484375 21.25 14.1330013275146484 -0.873249590396881104 0.477953702211380005 -0.0948442742228507996
8.46875 21.625 13.625 -0.730141878128051758 0.647087275981903076 -0.219478175044059753
11.078125 26.4375 13.875 -0.278809189796447754 0.100897334516048431 0.955031454563140869
11.859375 25.53125 17.0410003662109375 0.641771137714385986 0.76679307222366333 0.0125744109973311424
11.40625 25.84375 15.5480003356933594 0.275068074464797974 0.758173465728759766 0.591194212436676025
10.828125 26.21875 13.6459999084472656 -0.742247700691223145 -0.16064879298210144 0.650584578514099121
12.03125 25.03125 18.2550010681152344 0.159152135252952576 0.96755605936050415 -0.196229100227355957
10.65625 25.9375 13.6790008544921875 -0.835079193115234375 0.466424882411956787 0.291702777147293091
14.09375 23.28125 25.6529998779296875 0.504595935344696045 -0.465468734502792358 -0.727132558822631836
13.96875 22.96875 25.8650016784667969 0.481104135513305664 -0.850343525409698486 0.213201075792312622
10.5625 25.21875 14.5640010833740234 -0.802272379398345947 -0.192556098103523254 0.565049707889556885
10.296875 25.40625 13.6790008544921875 -0.257710427045822144 0.957252144813537598 0.131353646516799927
13.875 22.625 26.1440010070800781 0.469088822603225708 -0.871717751026153564 -0.141647249460220337
10.4375 24.90625 14.7779998779296875 -0.0743710100650787354 0.995800316333770752 -0.0533922575414180756
10.15625 25.09375 13.7930011749267578 -0.72185671329498291 -0.384111970663070679 0.5756569504737854
13.75 22.3125 26.3240013122558594 0.757433474063873291 -0.619835257530212402 -0.20518001914024353
10.234375 24.65625 14.6800003051757812 0.714698970317840576 -0.387717247009277344 -0.582134544849395752
9.984375 24.40625 14.4829998016357422 -0.892087280750274658 0.329383552074432373 0.309332817792892456
13.3125 21.375 26.7519989013671875 0.932197153568267822 0.14291536808013916 0.332541346549987793
11.421875 22.625 20.4850006103515625 -0.926922082901000977 0.114094987511634827 -0.357488036155700684
13.078125 21.15625 26.5550003051757812 -0.370625853538513184 -0.654335618019104004 -0.659152030944824219
12.84375 20.9375 26.3740005493164062 0.779040277004241943 -0.487855434417724609 -0.393818855285644531
10.6875 21.5625 20.4360008239746094 0.0872456729412078857 -0.760039925575256348 -0.643993496894836426
12.4375 20.03125 26.7840003967285156 -0.029081324115395546 -0.415545672178268433 -0.909107387065887451
11.875 20.40625 24.930999755859375 0.296882748603820801 -0.932028770446777344 -0.207805350422859192
11.140625 20.46875 23.1430015563964844 0.993908941745758057 -0.107052728533744812 0.0261679701507091522
10.453125 20.90625 20.8950004577636719 -0.178716510534286499 -0.930137455463409424 0.320787817239761353
9.890625 20.875 19.6000022888183594 0.201429009437561035 -0.968374550342559814 -0.147231429815292358
9.296875 20.875 18.2720012664794922 -0.266686171293258667 -0.0185685530304908752 0.963604509830474854
8.71875 21.25 16.3360004425048828 -0.929250121116638184 0.135162070393562317 0.343839198350906372
8.75 20.84375 17.0249996185302734 -0.505821585655212402 -0.515145003795623779 -0.691932082176208496
8.609375 22.09375 12.5909996032714844 -0.857987165451049805 -0.396992087364196777 -0.32596820592880249
9.59375 24.21875 7.13199996948242188 -0.432428985834121704 0.889044523239135742 -0.150349676609039307
9.234375 24.34375 7.77300071716308594 -0.898443222045898438 0.38052523136138916 -0.21908925473690033
9.28125 24.71875 7.08300018310546875 -0.841968655586242676 0.535711467266082764 0.0640467479825019836
5.796875 14.5625 19.5680007934570312 -0.0699536129832267761 0.840359270572662354 -0.537496805191040039
8.609375 12.40625 29.3110008239746094 0.896786332130432129 -0.385700136423110962 0.216817095875740051
5.90625 14.09375 20.5030021667480469 -0.504549205303192139 0.83143150806427002 0.23270532488822937
5.640625 14.28125 19.6010017395019531 -0.897482037544250488 -0.392548799514770508 -0.201075553894042969
5.71875 13.84375 20.4370002746582031 -0.438788771629333496 0.397904932498931885 -0.805689811706542969
5.546875 13.5625 20.404998779296875 -0.836912214756011963 0.546405673027038574 -0.0319194570183753967
8.25 11.5 29.7859992980957031 -0.677744805812835693 -0.729284882545471191 -0.0938380807638168335
5.390625 13.3125 20.4370002746582031 -0.178819999098777771 0.94589841365814209 -0.270738989114761353
5.15625 13.4375 19.6990013122558594 -0.712289929389953613 -0.210457578301429749 0.66958993673324585
8.015625 11.28125 29.5730018615722656 -0.739278078079223633 -0.350905776023864746 -0.574746072292327881
5.21875 13.03125 20.470001220703125 -0.197874084115028381 -0.97670823335647583 -0.0829874128103256226
7.828125 11.03125 29.4760017395019531 0.0868263766169548035 0.65910184383392334 0.747024655342102051
5.046875 12.75 20.4710006713867188 -0.614709436893463135 0.769594669342041016 -0.172789692878723145
7.6875 10.71875 29.6059989929199219 0.464037060737609863 -0.108083494007587433 0.879197180271148682
4.90625 12.4375 20.5849990844726562 -0.225910782814025879 -0.547814071178436279 0.805520951747894287
7.578125 10.375 29.8530006408691406 0.501145362854003906 -0.616673648357391357 0.607097148895263672
4.71875 12.15625 20.5359992980957031 -0.340218544006347656 0.768432974815368652 0.541998207569122314
7.453125 10.0625 30.0159988403320312 0.945589840412139893 0.177561536431312561 0.272638469934463501
4.53125 11.90625 20.4710006713867188 -0.658646941184997559 0.740147173404693604 0.135523095726966858
7.359375 9.75 30.2299995422363281 0.695275723934173584 -0.306018054485321045 0.65034186840057373
4.375 11.625 20.552001953125 -0.764991402626037598 0.62666773796081543 0.148578792810440063
7.15625 9.5 30.1310005187988281 0.878608405590057373 -0.445644140243530273 0.171605736017227173
4.234375 11.34375 20.6180000305175781 -0.637737154960632324 0.492151856422424316 -0.592518150806427002
6.65625 9.46875 29.0320014953613281 0.180117100477218628 -0.935157477855682373 0.305021911859512329
5.640625 10.09375 25.7350006103515625 0.974747121334075928 -0.221915915608406067 -0.0249296557158231735
4.140625 11.03125 20.8310012817382812 -0.43844836950302124 0.688292384147644043 0.577941715717315674
5.40625 9.875 25.5219993591308594 0.248253405094146729 -0.926785528659820557 -0.281849026679992676
4.859375 10.21875 23.7019996643066406 0.213633731007575989 -0.975502192974090576 -0.0524975024163722992
4.203125 10.59375 21.6180000305175781 -0.149652346968650818 -0.572903811931610107 -0.805844545364379883
9.640625 25.34375 5.29500007629394531 -0.39609992504119873 0.0983537137508392334 0.912924647331237793
9.59375 25.6875 4.88500022888183594 -0.746902823448181152 -0.128216192126274109 0.652454555034637451
6.546875 13.09375 32.8689994812011719 -0.049729224294424057 0.133418172597885132 -0.989811360836029053
5.09375 12.15625 37.625 -0.478270471096038818 0.754042565822601318 0.45019686222076416
7.421875 13.25 30.6059989929199219 0.739868521690368652 0.379651248455047607 -0.555391371250152588
5.109375 11.8125 38.0989990234375 -0.154748693108558655 0.77828139066696167 0.60854804515838623
4.84375 11.625 39.0009994506835938 -0.586981594562530518 0.732274055480957031 -0.345293223857879639
11.203125 25.90625 15.8789997100830078 0.241555243730545044 0.151044413447380066 -0.958559691905975342
11.71875 25.15625 18.2089996337890625 0.71963733434677124 0.595736920833587646 -0.356678783893585205
10.953125 25.65625 15.6660003662109375 0.575364470481872559 0.186838284134864807 0.79627072811126709
10.75 25.8125 14.9610004425048828 -0.838609635829925537 -0.43766823410987854 0.324315249919891357
14.03125 23.21875 26.4750022888183594 0.867369711399078369 0.492227733135223389 -0.0733594298362731934
12.3125 24.34375 20.7830009460449219 0.844116628170013428 0.320482820272445679 0.429834842681884766
10.65625 25.46875 15.2550010681152344 -0.0632327497005462646 0.463659703731536865 0.883754074573516846
13.59375 22.6875 26.2779998779296875 -0.905793368816375732 -0.329772353172302246 0.266061127185821533
11.84375 23.84375 20.4720001220703125 0.866051673889160156 -0.234786733984947205 -0.441395163536071777
13.46875 22.34375 26.5069999694824219 -0.229997232556343079 -0.83881610631942749 0.493445813655853271
13.421875 21.96875 26.983001708984375 0.804805517196655273 -0.222878977656364441 0.550102829933166504
13.234375 21.71875 26.9680023193359375 0.853081941604614258 0.516137599945068359 0.0765050798654556274
13.078125 21.4375 27.0159988403320312 0.496855556964874268 0.851927280426025391 0.165392041206359863
11.109375 22.75 20.4879989624023438 0.458391875028610229 -0.328657269477844238 -0.825748860836029053
12.984375 21.09375 27.3110008239746094 0.601499259471893311 0.472711265087127686 -0.644005239009857178
12.890625 20.78125 27.5740013122558594 0.570021390914916992 0.777363419532775879 -0.266048520803451538
12.75 20.46875 27.7379989624023438 0.662901520729064941 -0.0863101482391357422 -0.743715107440948486
10.546875 21.90625 20.4720001220703125 0.272666960954666138 0.0741849169135093689 -0.959244132041931152
9.390625 22.25 17.305999755859375 -0.319383978843688965 0.726089239120483398 0.608923852443695068
12.046875 20.09375 26.6560020446777344 -0.466544300317764282 -0.65507054328918457 -0.594322323799133301
11.5625 20.40625 25.0480003356933594 -0.014567280188202858 -0.925848960876464844 -0.377612829208374023
9.15625 22 17.1260013580322266 0.521881818771362305 0.452350080013275146 0.723200321197509766
10.765625 20.53125 23.0310020446777344 0.107158564031124115 -0.987127244472503662 0.118730254471302032
10.140625 20.9375 20.9970016479492188 -0.496153503656387329 -0.794343948364257812 0.350498735904693604
9.546875 20.9375 19.5870018005371094 -0.285469621419906616 -0.935718178749084473 -0.2072162926197052
8.796875 21.4375 17.1590003967285156 -0.8306388258934021 0.222812116146087646 0.510287940502166748
8.953125 20.96875 18.2259998321533203 -0.680163323879241943 -0.699454843997955322 -0.219409942626953125
7.6875 13.0625 30.2620010375976562 0.627368569374084473 0.240954428911209106 -0.740506350994110107
5 11.375 39.0009994506835938 -0.322588592767715454 0.0926959216594696045 -0.941989421844482422
8.625 12.5 30.0680007934570312 0.984820067882537842 -0.142085671424865723 0.099705129861831665
8.390625 12.65625 29.3139991760253906 -0.211632534861564636 0.951599299907684326 0.222868502140045166
8.515625 12.1875 30.2970008850097656 -0.122130021452903748 -0.982554733753204346 0.14025174081325531
5.546875 14.0625 20.6199989318847656 -0.982392430305480957 0.181255832314491272 -0.0452924035489559174
8.296875 11.9375 30.1339988708496094 -0.185398027300834656 -0.968984246253967285 -0.163392305374145508
5.4375 13.75 20.7840003967285156 -0.958469986915588379 0.285095870494842529 0.00745529215782880783
5.375 13.40625 21.1450004577636719 -0.909591197967529297 0.0780582129955291748 0.408106207847595215
5.265625 13.09375 21.3590011596679688 -0.733951568603515625 0.67903369665145874 0.0151112647727131844
5.125 12.78125 21.5060005187988281 -0.889498293399810791 -0.142149418592453003 0.434265285730361938
5.03125 12.4375 21.7530021667480469 0.505451023578643799 0.624934911727905273 -0.594958484172821045
4.890625 12.125 21.8829994201660156 -0.296697169542312622 -0.954517722129821777 0.0294401366263628006
7.546875 10.09375 31.1010017395019531 0.788178324699401855 -0.573505520820617676 0.22330804169178009
4.578125 11.9375 21.4410018920898438 0.461866945028305054 0.752382099628448486 0.469680964946746826
7.328125 9.84375 30.9379997253417969 0.789311051368713379 0.0668760538101196289 0.610340595245361328
4.375 11.6875 21.3419990539550781 -0.386405795812606812 0.7505379319190979 0.536081492900848389
7.125 9.625 30.8069992065429688 0.000519386492669582367 -0.999902784824371338 0.0139360763132572174
6.625 9.5625 29.7080001831054688 -0.283958792686462402 0.580817997455596924 0.762901008129119873
6.078125 9.875 27.9360008239746094 0.756231248378753662 -0.428138196468353271 -0.494784921407699585
5.203125 10.03125 25.6560020446777344 -0.4388599693775177 -0.809588491916656494 0.389831185340881348
4.640625 10.375 23.8680000305175781 0.168046250939369202 -0.975375473499298096 -0.142839029431343079
4.03125 10.75 21.8839988708496094 -0.820596694946289062 0.544861376285552979 -0.172473594546318054
7.953125 12.875 29.9010009765625 0.651981592178344727 0.447675347328186035 -0.611969590187072754
4.890625 10.9375 39.8860015869140625 0.0637406930327415466 -0.593314111232757568 0.802443385124206543
8.375 12.8125 29.0159988403320312 -0.134367272257804871 0.798288047313690186 0.587096035480499268
5.21875 10.8125 39.3289985656738281 0.450100123882293701 -0.486362338066101074 -0.748906850814819336
8.59375 12.59375 28.8520011901855469 0.966149270534515381 -0.21388205885887146 -0.144256889820098877
5.484375 10.625 38.9510002136230469 0.193545103073120117 -0.976006984710693359 0.0997528508305549622
8.359375 12.0625 30.1469993591308594 -0.205393493175506592 -0.972617268562316895 -0.108761757612228394
5.765625 10.4375 38.5919990539550781 0.432888984680175781 -0.874794542789459229 -0.217581212520599365
11.46875 25.46875 18.1049995422363281 0.729729115962982178 0.552388191223144531 -0.402942627668380737
11.15625 25.6875 17.0550003051757812 0.192042872309684753 0.945925235748291016 -0.261428624391555786
14.015625 23.34375 27.1759986877441406 0.879306256771087646 0.464193135499954224 0.10651358962059021
11.65625 24.9375 19.3339996337890625 0.235839083790779114 0.866875886917114258 0.439210832118988037
14.0625 22.90625 27.9630012512207031 0.828803122043609619 0.445663034915924072 0.338333874940872192
10.71875 25.15625 16.8420009613037109 0.316946625709533691 0.165955096483230591 0.933811426162719727
13.796875 22.6875 27.7010002136230469 -0.193748950958251953 0.938598036766052246 0.285473376512527466
10.625 24.8125 17.1860008239746094 -0.558882296085357666 0.813636898994445801 -0.16014254093170166
13.578125 22.46875 27.5359992980957031 -0.245039045810699463 0.691433310508728027 0.679614484310150146
10.453125 24.53125 17.2030010223388672 0.403873622417449951 0.791173756122589111 -0.459271371364593506
11.265625 23.59375 20.4669990539550781 0.853844106197357178 -0.0762302055954933167 -0.514916658401489258
10.34375 24.21875 17.4320011138916016 -0.980378031730651855 0.131436333060264587 0.146912559866905212
10.25 23.875 17.7600002288818359 -0.490969210863113403 -0.0907350704073905945 -0.866438865661621094
10.140625 23.53125 18.0060005187988281 -0.0527180880308151245 -0.740305483341217041 -0.6702004075050354
10.6875 22.75 20.4659996032714844 -0.325275212526321411 0.208039626479148865 -0.922450780868530273
10.015625 23.1875 18.220001220703125 0.484688460826873779 -0.12562793493270874 0.86561816930770874
9.796875 22.90625 18.1550006866455078 -0.225771069526672363 0.136724531650543213 0.964538216590881348
12.734375 20.59375 28.48699951171875 -0.256265610456466675 -0.267347246408462524 -0.928899049758911133
10.328125 22.1875 20.5 -0.0812921300530433655 -0.170010402798652649 -0.982083499431610107
9.5625 22.6875 17.9729995727539062 -0.755600452423095703 -0.021638358011841774 0.65467536449432373
12.515625 20.34375 28.3400001525878906 0.358226686716079712 -0.069883979856967926 -0.931015491485595703
9.453125 22.34375 18.220001220703125 -0.865554928779602051 -0.391316205263137817 0.312548011541366577
12.40625 20.03125 28.58599853515625 0.597241759300231934 -0.797251462936401367 0.0877061411738395691
12.03125 20.28125 27.3069992065429688 0.515675902366638184 -0.639275431632995605 0.57044297456741333
11.453125 20.25 26.0100021362304688 -0.132934227585792542 -0.917347371578216553 -0.375236272811889648
10.640625 20.78125 23.3209991455078125 0.0584457181394100189 -0.595446348190307617 -0.801266372203826904
9.109375 21.78125 18.2849998474121094 -0.92038416862487793 -0.152953550219535828 0.359858512878417969
9.5625 21.09375 20.3850021362304688 0.106182627379894257 -0.949072003364562988 -0.296627014875411987
9.03125 21.03125 19.220001220703125 -0.434084832668304443 -0.786039888858795166 0.440126955509185791
4.171875 9.09375 44.26300048828125 -0.748770475387573242 -0.587712466716766357 -0.30649113655090332
7.828125 11 32.9510002136230469 -0.53503948450088501 0.0700432360172271729 0.841918528079986572
4.375 8.8125 44.1819992065429688 0.653192698955535889 -0.0325621329247951508 -0.756491243839263916
8.4375 12.34375 30.8330001831054688 0.770888328552246094 0.621813058853149414 -0.138128921389579773
5.734375 14.0625 22.0089988708496094 -0.809130191802978516 0.576726555824279785 -0.112671270966529846
8.296875 12.0625 30.9650001525878906 0.627264678478240967 0.713339030742645264 -0.312548309564590454
8.1875 11.71875 31.1609992980957031 0.584894776344299316 0.685064554214477539 -0.4342631995677948
5.515625 13.40625 22.4850006103515625 0.749025344848632812 -0.231944620609283447 -0.620614826679229736
8.0625 11.40625 31.3590011596679688 0.50657343864440918 0.570541024208068848 -0.646425783634185791
8.015625 11.0625 31.7509994506835938 0.794717311859130859 0.58243173360824585 -0.170873507857322693
5.078125 12.90625 22.1730003356933594 -0.327757090330123901 0.915397822856903076 0.233713611960411072
7.828125 10.78125 31.720001220703125 0.900654911994934082 0.319991230964660645 0.293983638286590576
4.859375 12.65625 22.0419998168945312 -0.384484708309173584 0.508932590484619141 0.7701682448387146
7.625 10.5625 31.5719985961914062 0.888232707977294922 0.161308795213699341 0.430141925811767578
6.953125 9.40625 31.6860008239746094 0.4099273681640625 -0.544014394283294678 0.732125580310821533
6.4375 9.71875 29.9970016479492188 -0.798608005046844482 0.335636109113693237 0.499573498964309692
5.84375 10.09375 28.0779991149902344 -0.272089838981628418 0.948662281036376953 0.161266610026359558
5.703125 9.78125 28.1599998474121094 -0.667608261108398438 -0.634500980377197266 0.389496684074401855
5.0625 10.1875 26.1100006103515625 0.726498305797576904 -0.687072217464447021 -0.0114890569821000099
4.46875 10.5625 24.1739997863769531 0.201200351119041443 -0.30702364444732666 -0.930190861225128174
4.109375 10.78125 23.0260009765625 0.154060646891593933 -0.488555997610092163 -0.858823835849761963
3.90625 8.53125 45.6899986267089844 -0.0711322575807571411 0.36440470814704895 0.928520023822784424
7.421875 10.375 34.8199996948242188 0.715047061443328857 -0.41185307502746582 -0.56487584114074707
6.625 9.875 37.3940010070800781 -0.916235685348510742 -0.252122431993484497 -0.311362326145172119
7.46875 10.03125 35.1959991455078125 0.730434060096740723 -0.640002071857452393 -0.238460496068000793
6.984375 9.75 36.73699951171875 -0.88237154483795166 -0.345779210329055786 0.319150835275650024
5.09375 6.8125 45.4449996948242188 0.627116203308105469 0.776387989521026611 -0.0628255680203437805
2.3125 4.34375 55.4950027465820312 -0.95301055908203125 -0.270120292901992798 -0.137134239077568054
11.171875 25.4375 18.5600013732910156 -0.111312709748744965 0.387864083051681519 0.91497039794921875
13.921875 23.1875 28.3510017395019531 0.820275366306304932 0.566549062728881836 -0.0785525739192962646
13.78125 22.875 28.4500007629394531 -0.0413961037993431091 -0.862586319446563721 0.504213392734527588
10.71875 24.9375 18.2800006866455078 -0.733308136463165283 -0.459823429584503174 -0.50082099437713623
13.65625 22.59375 28.6300010681152344 0.302474766969680786 -0.127947375178337097 0.944530844688415527
10.875 24.4375 19.3789997100830078 0.723989307880401611 -0.292390435934066772 0.624777913093566895
10.53125 24.65625 18.2480010986328125 -0.824803531169891357 -0.558082163333892822 0.0907933488488197327
13.5625 22.28125 28.9090003967285156 -0.299952954053878784 -0.795991659164428711 0.525761842727661133
10.375 24.40625 18.3290004730224609 -0.931320607662200928 0.263509184122085571 0.251405686140060425
13.46875 21.96875 29.13800048828125 0.415597617626190186 -0.901386380195617676 0.121577605605125427
10.21875 24.125 18.3950004577636719 -0.884981274604797363 -0.144091889262199402 -0.442770391702651978
13.328125 21.65625 29.2859992980957031 -0.296076476573944092 -0.887236237525939941 0.353766173124313354
10.671875 23.40625 20.5110015869140625 -0.436730384826660156 0.295406639575958252 -0.849706709384918213
10.171875 23.75 18.8380012512207031 -0.658254325389862061 0.300355821847915649 0.690280795097351074
13.09375 21.40625 29.1389999389648438 -0.129379183053970337 -0.967305600643157959 -0.218130543828010559
10.5 23.15625 20.5110015869140625 0.0759807974100112915 0.100450754165649414 -0.992036581039428711
12.875 21.15625 29.0229988098144531 -0.246924921870231628 -0.955172538757324219 -0.163320213556289673
10.28125 22.875 20.4449996948242188 0.255128085613250732 0.559700310230255127 -0.788444817066192627
10.109375 22.59375 20.4449996948242188 -0.411223411560058594 -0.39301753044128418 -0.822455108165740967
9.640625 22.90625 18.9360008239746094 -0.820978641510009766 0.414674580097198486 0.392478346824645996
9.9375 22.3125 20.4780006408691406 -0.419653534889221191 0.36703917384147644 -0.830164551734924316
9.578125 22.5625 19.2970008850097656 -0.875470399856567383 0.265590637922286987 0.403748929500579834
12.5 20.25 29.5149993896484375 0.719536244869232178 0.122995458543300629 0.683476150035858154
9.75 22.0625 20.4290008544921875 -0.454358935356140137 0.722313165664672852 -0.521365165710449219
9.515625 22.21875 19.6580009460449219 -0.758702754974365234 0.636267244815826416 0.139764383435249329
12.25 20.0625 29.2530021667480469 -0.29884791374206543 -0.921585977077484131 -0.247727975249290466
11.71875 20.40625 27.4980010986328125 -0.482236027717590332 -0.685813486576080322 0.545076429843902588
11.140625 20.78125 25.61199951171875 0.0681716948747634888 0.416918754577636719 -0.906383633613586426
9.578125 21.8125 20.4449996948242188 -0.824585139751434326 0.247896239161491394 -0.508534014225006104
11.015625 20.46875 25.7600021362304688 -0.72817462682723999 -0.656204462051391602 -0.197882354259490967
10.359375 20.90625 23.6110000610351562 0.0619112290441989899 -0.799913465976715088 -0.59691321849822998
9.4375 21.53125 20.5439987182617188 -0.220285534858703613 -0.285455495119094849 -0.932732224464416504
9.28125 21.21875 20.6259994506835938 -0.899878621101379395 -0.420063138008117676 -0.117326542735099792
2.4375 4.09375 55.55999755859375 0.68266749382019043 -0.198645919561386108 -0.703210353851318359
7.28125 21.5625 4.00699996948242188 -0.394208461046218872 0.17837880551815033 -0.901543498039245605
8.5 12.5625 31.76300048828125 0.975271940231323242 0.220263898372650146 -0.0181234553456306458
5.6875 13.96875 23.1189994812011719 -0.643214046955108643 0.327238708734512329 0.692235946655273438
8.375 11.875 32.5009994506835938 0.169824078679084778 -0.632022619247436523 -0.756113171577453613
5.609375 13.625 23.4469985961914062 -0.741667211055755615 -0.670644879341125488 -0.0128540564328432083
8.1875 11.625 32.4189987182617188 0.97132641077041626 -0.236922934651374817 -0.0198110360652208328
5.5 13.3125 23.677001953125 0.391761809587478638 0.529399275779724121 -0.752501964569091797
8.140625 11.28125 32.86199951171875 0.652623593807220459 -0.676281452178955078 0.341651499271392822
7.984375 11 32.86199951171875 0.793465793132781982 -0.602611362934112549 0.08527413010597229
7.84375 10.75 32.9119987487792969 0.964524567127227783 0.230122879147529602 0.129367023706436157
7.65625 10.46875 32.8790016174316406 0.713822484016418457 -0.474085032939910889 -0.51546180248260498
7.484375 10.21875 32.8300018310546875 0.690271496772766113 -0.573146343231201172 -0.441620379686355591
4.78125 11.90625 24.0540008544921875 0.280200868844985962 0.852728545665740967 0.440841704607009888
7.34375 9.9375 32.9290008544921875 0.899995386600494385 -0.232182249426841736 -0.368916749954223633
7.171875 9.65625 32.9280014038085938 0.484285205602645874 -0.563782453536987305 -0.669041931629180908
7 9.375 32.9280014038085938 -0.0055159139446914196 -0.840689301490783691 -0.541489660739898682
6.8125 9.125 32.8950004577636719 -0.103821881115436554 -0.336119323968887329 -0.936079502105712891
4.21875 10.71875 24.430999755859375 -0.552839398384094238 -0.086156018078327179 0.828821837902069092
6.640625 8.84375 32.8460006713867188 0.00343936472199857235 -0.755200624465942383 -0.655484676361083984
6.484375 8.59375 32.8780021667480469 0.506771743297576904 -0.63239210844039917 -0.585886240005493164
6.34375 8.3125 32.9109992980957031 0.469614923000335693 -0.837069213390350342 -0.280672192573547363
6.171875 8.0625 32.927001953125 -0.426955282688140869 -0.864692330360412598 -0.264605998992919922
6 7.78125 32.8780021667480469 0.38218262791633606 -0.787931323051452637 -0.482804924249649048
5.796875 7.53125 32.8120002746582031 -0.932059824466705322 -0.32832828164100647 0.153182759881019592
3.46875 5.4375 55.4520034790039062 -0.591725587844848633 0.198071464896202087 -0.781427264213562012
2 1.28125 57.3860015869140625 -0.030441775918006897 0.303024739027023315 0.95249640941619873
2.0625 1.65625 56.6660003662109375 -0.520917356014251709 0.776567697525024414 -0.354383677244186401
1.96875 1.96875 56.4850006103515625 -0.0056875268928706646 -0.193630769848823547 -0.981058001518249512
1.515625 2.03125 57.4359970092773438 -0.321615427732467651 -0.158724471926689148 0.933472037315368652
1.359375 2.3125 57.4370040893554688 -0.0501287579536437988 -0.998131752014160156 -0.0349307022988796234
1.484375 2.75 56.5179977416992188 -0.962718665599822998 0.06590985506772995 -0.262352138757705688
4.484375 5.625 45.3030014038085938 -0.826756179332733154 -0.360907644033432007 0.431532055139541626
4.65625 6.09375 44.2379989624023438 -0.197958573698997498 0.435938239097595215 -0.877935171127319336
13.9375 23.15625 29.6090011596679688 0.812427103519439697 -0.105009622871875763 0.573528647422790527
12.71875 23.96875 25.5579986572265625 -0.311687469482421875 0.238715216517448425 -0.919709682464599609
12.109375 24.375 23.5400009155273438 -0.560276806354522705 0.544214248657226562 0.624436378479003906
11.46875 24.8125 21.4410018920898438 0.977630436420440674 -0.209270194172859192 -0.0210891272872686386
11.21875 25 20.5719985961914062 -0.0346940457820892334 0.789471864700317383 -0.612805426120758057
11.03125 24.71875 20.5719985961914062 -0.916423261165618896 -0.302925080060958862 0.261542946100234985
13.703125 22.5625 30.0190010070800781 -0.280883550643920898 -0.853485822677612305 -0.43893781304359436
10.84375 24.46875 20.5229988098144531 -0.985456347465515137 0.167399689555168152 0.0292068887501955032
13.46875 22.3125 29.8870010375976562 0.0993100255727767944 -0.980654299259185791 -0.168685033917427063
10.671875 24.15625 20.5719985961914062 -0.541148960590362549 0.14866967499256134 -0.827680528163909912
10.46875 23.90625 20.53900146484375 0.7387734055519104 0.573858320713043213 -0.35341256856918335
10.296875 23.59375 20.5880012512207031 -0.750025689601898193 0.537051558494567871 -0.386053293943405151
12.734375 21.15625 29.9039993286132812 0.06181320920586586 -0.811275184154510498 0.581387758255004883
12.640625 20.84375 30.1829986572265625 0.00836793892085552216 -0.794840753078460693 0.606760501861572266
9.96875 22.59375 21.3590011596679688 -0.748058617115020752 0.400111675262451172 0.529451489448547363
12.546875 20.53125 30.4459991455078125 -0.12020343542098999 -0.867623507976531982 0.482473433017730713
9.765625 22.34375 21.2770004272460938 -0.825538873672485352 0.268648028373718262 0.496300160884857178
12.421875 20.21875 30.6420021057128906 -0.202390596270561218 -0.858703553676605225 0.470814406871795654
11.671875 20.3125 28.7560005187988281 -0.809034824371337891 -0.355732589960098267 -0.467885583639144897
10.78125 20.90625 25.8370018005371094 -0.721355617046356201 -0.651703000068664551 0.234369859099388123
10.015625 21 23.8850021362304688 0.498136907815933228 -0.826484322547912598 -0.262265712022781372
9.390625 21.40625 21.8670005798339844 -0.873854458332061768 0.159944221377372742 -0.459125608205795288
4.515625 6.34375 44.2210006713867188 0.391808599233627319 0.0718666836619377136 -0.917235612869262695
3.875 7.40625 44.1560020446777344 0.62369924783706665 -0.286649405956268311 -0.727207958698272705
6.84375 9.25 34.5639991760253906 0.0841723009943962097 -0.877004444599151611 -0.473052144050598145
3.328125 7.40625 45.4519996643066406 -0.708257436752319336 0.028497966006398201 0.705378830432891846
9.71875 14.5 32.98699951171875 -0.309541195631027222 -0.934405207633972168 -0.176270246505737305
9.546875 14.21875 33.0050010681152344 -0.273737341165542603 0.0233321413397789001 -0.961521446704864502
9.34375 13.96875 32.9220008850097656 0.00892405956983566284 -0.979143500328063965 -0.202974036335945129
9.15625 13.71875 32.8559989929199219 -0.19603903591632843 -0.457882583141326904 -0.867128729820251465
9 13.4375 32.8730010986328125 0.0863969996571540833 -0.689637720584869385 -0.718982160091400146
8.84375 13.15625 32.9230003356933594 0.731529176235198975 -0.256692588329315186 -0.631643831729888916
8.671875 12.90625 32.9230003356933594 -0.8700217604637146 -0.493009001016616821 -0.00206243526190519333
8.484375 12.625 32.9220008850097656 0.921763598918914795 -0.375703752040863037 -0.0959092602133750916
8.375 12.28125 33.1350021362304688 0.806993067264556885 -0.277694553136825562 0.521198630332946777
5.796875 13.90625 24.7050018310546875 -0.999526262283325195 0.00246539362706243992 0.0306782089173793793
8.25 11.96875 33.2989997863769531 0.633990585803985596 -0.63465428352355957 0.441893488168716431
8.125 11.65625 33.4799995422363281 0.934798598289489746 -0.342550486326217651 0.0938653126358985901
7.796875 11.5 32.9389991760253906 0.470115989446640015 0.863943815231323242 -0.180532574653625488
7.921875 11.0625 33.8899993896484375 0.993371069431304932 -0.107413329184055328 -0.0409414581954479218
5.09375 12.8125 24.7050018310546875 -0.964074134826660156 0.0501829162240028381 -0.260849922895431519
7.765625 10.78125 33.9379997253417969 -0.219561412930488586 -0.928993880748748779 -0.297931522130966187
4.890625 12.5625 24.5730018615722656 -0.681998193264007568 0.170465454459190369 0.711210250854492188
7.28125 10.6875 32.9379997253417969 0.18207491934299469 0.411687940359115601 -0.89295119047164917
7.109375 10.40625 32.9389991760253906 -0.510814368724822998 0.488355249166488647 -0.707515239715576172
7.09375 9.625 34.0380020141601562 0.926382482051849365 -0.322367280721664429 -0.194666162133216858
6.5625 9.59375 32.8570022583007812 0.911305785179138184 -0.0436701662838459015 -0.40940779447555542
5.84375 10.03125 30.5439987182617188 0.157117187976837158 -0.479609310626983643 -0.863301217555999756
5.234375 10.40625 28.5590019226074219 0.231087774038314819 0.680102765560150146 0.695743203163146973
6.8125 9.0625 34.2180023193359375 -0.00316879851743578911 -0.817302048206329346 -0.576200783252716064
4.546875 10.46875 26.8540000915527344 0.555848479270935059 -0.792678594589233398 -0.25038573145866394
4.203125 10.6875 25.7540016174316406 -0.320129513740539551 -0.417313307523727417 0.850509703159332275
6.5625 8.84375 33.9230003356933594 -0.201606914401054382 -0.912125825881958008 -0.356904923915863037
6.078125 8.78125 32.9220008850097656 0.875231683254241943 -0.0724218711256980896 -0.478251427412033081
5.75 7.4375 34.1030006408691406 0.0184757765382528305 -0.974330663681030273 -0.224362090229988098
5.515625 7.5625 33.332000732421875 0.656806647777557373 -0.677289783954620361 0.331487089395523071
5.46875 7.21875 33.7089996337890625 0.660031378269195557 -0.556243717670440674 0.504927158355712891
5.375 6.90625 33.9560012817382812 0.460052281618118286 -0.851713240146636963 0.25087130069732666
4.984375 6.78125 33.1850013732910156 0.178216814994812012 -0.565019488334655762 0.805600225925445557
5 6.40625 33.7579994201660156 -0.320384681224822998 -0.847962558269500732 -0.422271370887756348
4.703125 6.21875 33.3650016784667969 0.693011224269866943 -0.664868175983428955 0.278721481561660767
4.5 5.96875 33.2340011596679688 0.377151697874069214 -0.890962660312652588 0.252867966890335083
4.375 5.65625 33.3979988098144531 0.539522647857666016 -0.00415233708918094635 -0.8419608473777771
4.171875 5.375 33.332000732421875 0.916827380657196045 -0.399224162101745605 0.00689791189506649971
3.9375 5.15625 33.1189994812011719 0.612319648265838623 -0.570941507816314697 -0.546891689300537109
3.796875 4.875 33.1520004272460938 0.909597337245941162 -0.150330051779747009 -0.387341767549514771
3.609375 4.625 33.0699996948242188 0.704844117164611816 -0.583888769149780273 -0.402825921773910522
6.921875 9.65625 33.8100013732910156 0.240952536463737488 -0.0410534515976905823 -0.969668269157409668
3.421875 4.375 33.0040016174316406 0.935427069664001465 -0.308277785778045654 -0.173034682869911194
7.21875 9.84375 32.8430023193359375 0.0667046383023262024 -0.760815680027008057 -0.64553070068359375
3.28125 4.09375 33.0530014038085938 0.544111073017120361 -0.608882665634155273 -0.577239096164703369
3.078125 3.8125 32.9399986267089844 0.468768268823623657 0.87904667854309082 -0.0867944061756134033
2.890625 3.53125 32.8899993896484375 0.598591804504394531 -0.594469785690307617 -0.536929666996002197
3.546875 7.90625 44.2220001220703125 -0.57566303014755249 0.647376716136932373 -0.499515235424041748
6.578125 9.78125 34.3839988708496094 -0.621365070343017578 0.169308438897132874 -0.765009820461273193
6.28125 9.9375 34.8440017700195312 0.675876915454864502 -0.664364516735076904 -0.319077134132385254
7.953125 11 29.4160003662109375 0.986129879951477051 0.013707195408642292 -0.165408238768577576
6.0625 10.1875 35.0079994201660156 -0.270130932331085205 -0.786525428295135498 0.555344223976135254
13.9375 23.28125 30.7779998779296875 0.780127167701721191 0.581819593906402588 0.229972735047340393
13.765625 23.03125 30.7620010375976562 -0.0150815034285187721 -0.989172875881195068 0.145978152751922607
13.640625 22.6875 30.9920005798339844 0.559429585933685303 0.678569555282592773 -0.476006239652633667
13.515625 22.375 31.1560020446777344 0.554062187671661377 0.653039395809173584 -0.516289353370666504
13.390625 22.0625 31.417999267578125 0.478129178285598755 0.616869270801544189 -0.625191807746887207
10.640625 23.875 22.2820014953613281 -0.876609206199645996 -0.422050654888153076 -0.231148362159729004
13.28125 21.71875 31.680999755859375 0.641871988773345947 0.614625811576843262 -0.458514273166656494
10.390625 23.625 22.1020011901855469 -0.730157732963562012 -0.345207810401916504 -0.589661955833435059
13.0625 21.4375 31.582000732421875 0.45938342809677124 0.207689836621284485 0.863615512847900391
10.140625 23.375 21.8720016479492188 -0.717296242713928223 0.579693853855133057 0.386576205492019653
12.828125 21.1875 31.4020004272460938 0.303392767906188965 0.657982289791107178 0.689211249351501465
11.09375 20.75 28.0730018615722656 0.329115062952041626 -0.729174673557281494 -0.599989712238311768
9.8125 21.1875 24.4970016479492188 -0.0769115164875984192 -0.528403937816619873 0.845502078533172607
9.453125 21.4375 23.2999992370605469 -0.511551618576049805 -0.819817841053009033 0.257320195436477661
11.625 18.375 32.927001953125 0.824831008911132812 -0.0568575523793697357 -0.562513113021850586
11.28125 17.84375 32.927001953125 0.233233839273452759 0.93294835090637207 -0.27424323558807373
11.078125 17.5625 32.86199951171875 0.823076128959655762 0.475849300622940063 -0.310021042823791504
6.734375 10.59375 32.8590011596679688 0.597271978855133057 -0.0787745863199234009 -0.798160851001739502
10.90625 17.28125 32.9109992980957031 0.614180862903594971 0.589412569999694824 -0.524761617183685303
8.390625 11.625 27.4650001525878906 0.418039888143539429 -0.636661708354949951 -0.648000478744506836
10.734375 17 32.9589996337890625 0.674675643444061279 0.446587234735488892 -0.587684214115142822
8.703125 12.1875 25.9399986267089844 0.373273700475692749 -0.507615029811859131 0.776526749134063721
10.515625 16.71875 32.86199951171875 0.478902488946914673 0.826349079608917236 -0.296309947967529297
10.40625 16.40625 33.0750007629394531 -0.62702566385269165 -0.412880003452301025 0.660582244396209717
10.1875 16.15625 32.9589996337890625 0.134857013821601868 -0.564561605453491211 -0.814299583435058594
5.296875 10.4375 36.417999267578125 -0.106547914445400238 -0.947486281394958496 -0.301524937152862549
10.015625 15.875 32.944000244140625 -0.804855763912200928 0.584640264511108398 0.101995013654232025
8.828125 12.65625 24.9399986267089844 0.55126643180847168 -0.231706008315086365 0.801509618759155273
9.84375 15.625 32.944000244140625 -0.787201106548309326 -0.473835647106170654 -0.394707739353179932
5.15625 10.71875 36.3349990844726562 -0.682074546813964844 0.242843315005302429 -0.68978351354598999
9.90625 15.1875 33.7470016479492188 0.22309248149394989 -0.753813624382019043 -0.618057310581207275
9.65625 15.34375 32.9430007934570312 0.64943230152130127 0.673366367816925049 -0.353292196989059448
8.75 13.9375 32.9259986877441406 -0.18832002580165863 0.951931476593017578 0.241582185029983521
8.90625 13.4375 33.9930000305175781 0.147708520293235779 -0.673650145530700684 0.724139273166656494
8.828125 13.125 34.3209991455078125 0.476362079381942749 0.684312045574188232 -0.552083492279052734
8.375 13.40625 32.845001220703125 0.337788999080657959 0.505248010158538818 -0.794117748737335205
8.71875 12.8125 34.5009994506835938 -0.116533912718296051 -0.91490936279296875 0.386472046375274658
8.203125 13.125 32.8610000610351562 -0.447995096445083618 -0.682817041873931885 -0.577114582061767578
8.59375 12.46875 34.7150001525878906 0.337063193321228027 0.08289308100938797 -0.93782573938369751
8.046875 12.84375 32.8950004577636719 -0.0785310789942741394 0.654954612255096436 -0.751576602458953857
8.453125 12.15625 34.8300018310546875 0.466338902711868286 -0.733838379383087158 -0.493972927331924438
5.6875 13.90625 25.8079986572265625 -0.187338054180145264 -0.596662521362304688 0.780319333076477051
8.234375 11.90625 34.7150001525878906 0.295625120401382446 -0.943517744541168213 -0.149599432945251465
7.671875 12.25 32.8780021667480469 -0.512229084968566895 0.819911003112792969 -0.255670279264450073
8.09375 11.59375 34.8129997253417969 0.282347440719604492 -0.930565774440765381 0.233081907033920288
7.5 11.96875 32.8780021667480469 -0.701271414756774902 0.580423414707183838 -0.413916736841201782
5.46875 13.25 26.2680015563964844 0.478708207607269287 0.877343833446502686 0.0332598574459552765
7.953125 11.3125 34.9280014038085938 -0.0937953963875770569 -0.994015634059906006 -0.0559938885271549225
5.328125 12.96875 26.3829994201660156 -0.417378544807434082 -0.644506514072418213 0.640629768371582031
7.765625 11.0625 34.86199951171875 -0.157741144299507141 -0.944893598556518555 -0.28686898946762085
7.15625 11.4375 32.8610000610351562 0.732757210731506348 -0.553391158580780029 -0.396011620759963989
5.265625 12.625 26.6949996948242188 0.0838308706879615784 0.503164291381835938 -0.860115230083465576
7.59375 10.78125 34.8790016174316406 0.301561325788497925 -0.64070737361907959 0.706084251403808594
5.15625 12.3125 26.9239997863769531 -0.214378222823143005 -0.973409116268157959 0.0807259678840637207
7.5 10.46875 35.108001708984375 0.336425662040710449 -0.903202056884765625 -0.266540557146072388
4.953125 12.0625 26.8250007629394531 0.635589361190795898 0.305965662002563477 0.70880967378616333
7.3125 10.1875 35.1090011596679688 0.655931711196899414 -0.449585646390914917 -0.606322050094604492
4.6875 11.8125 26.5629997253417969 -0.888614654541015625 -0.142398521304130554 -0.435989201068878174
7.125 9.90625 35.0760002136230469 -0.325523942708969116 -0.882473289966583252 -0.339521735906600952
6.4375 10.3125 32.8289985656738281 -0.196278616786003113 -0.387670040130615234 -0.900659084320068359
6.890625 9.65625 34.8959999084472656 0.489463001489639282 -0.682693779468536377 0.542545080184936523
6.09375 9.75 32.845001220703125 -0.730007648468017578 0.375441372394561768 -0.571080207824707031
5.4375 10.15625 30.7290000915527344 -0.731564521789550781 -0.140019938349723816 0.667238950729370117
4.859375 10.53125 28.8430023193359375 -0.671145439147949219 0.265276461839675903 0.692237198352813721
5.4375 8.65625 32.9430007934570312 0.593840897083282471 0.708559691905975342 -0.381177455186843872
5.234375 8.40625 32.8120002746582031 0.717962682247161865 0.389577776193618774 -0.576852381229400635
4.5625 7.25 32.9109992980957031 0.0272948704659938812 0.0706017762422561646 -0.997131109237670898
