ply
format ascii 1.0
element vertex 426
property float x
property float y
property float z
property float nx
property float ny
property float nz
end_header
7.78125 16.5312004089355469 55.5270004272460938 -0.428225010633468628 0.138328000903129578 -0.893022000789642334
10.7187995910644531 19.5625 44.1319999694824219 -0.082981698215007782 -0.0500585995614528656 -0.995293021202087402
12 20.7812004089355469 39.345001220703125 -0.168380007147789001 -0.984879016876220703 -0.0407592989504337311
13.0937995910644531 21.5312004089355469 35.7210006713867188 0.741276025772094727 -0.657706975936889648 0.133908003568649292
11.6406002044677734 20.9062004089355469 39.9840011596679688 -0.540630996227264404 -0.802429020404815674 -0.252636998891830444
13.6093997955322266 22.5937995910644531 32.9010009765625 0.764999985694885254 -0.478305011987686157 0.431275993585586548
10.0312004089355469 20.5937995910644531 44.1650009155273438 0.00660284003242850304 0.0937146991491317749 -0.995576977729797363
9.59375 20.6562004089355469 45.0509986877441406 -0.847925007343292236 0.497891992330551147 -0.182006001472473145
13.5781002044677734 23.3437995910644531 31.819000244140625 0.383679002523422241 0.64076000452041626 -0.664994001388549805
13.2812004089355469 23.5312004089355469 32.2140007019042969 -0.267244011163711548 0.710165023803710938 -0.651341021060943604
13 23.7187995910644531 32.5909996032714844 -0.50595700740814209 0.601472973823547363 -0.618254005908966064
12.7343997955322266 23.9062004089355469 32.9029998779296875 -0.376060009002685547 -0.0539334006607532501 -0.925023972988128662
12.3437995910644531 24 33.6730003356933594 0.281085014343261719 0.913174986839294434 -0.295130997896194458
10.875 23.375 37.9679985046386719 -0.795394003391265869 0.600808978080749512 0.0798584967851638794
10.9375 23.7812004089355469 37.1660003662109375 -0.562997996807098389 0.793953001499176025 0.229504004120826721
11.25 24.375 35.5750007629394531 -0.273467987775802612 0.863655984401702881 0.423453986644744873
11.8593997955322266 25.1875 32.9189987182617188 -0.176207005977630615 0.119245998561382294 -0.977104008197784424
7.79687976837158203 13.9687995910644531 18.3810005187988281 0.584456980228424072 0.789950013160705566 0.185441002249717712
4.98437976837158203 12.5937995910644531 26.9729995727539062 -0.821078002452850342 0.530682027339935303 -0.21025499701499939
8.21875 13.875 57.4199981689453125 0.301023989915847778 -0.0356047004461288452 0.952952027320861816
8.67187976837158203 14.5312004089355469 55.4189987182617188 0.33424299955368042 -0.214263007044792175 -0.917809009552001953
8.01562023162841797 15.5312004089355469 55.4529991149902344 -0.057979099452495575 -0.0206077992916107178 -0.998104989528656006
6.9375 13.8125 20.6429996490478516 0.542940020561218262 0.746590018272399902 0.384474009275436401
7.48437976837158203 15.9062004089355469 56.0769996643066406 -0.812048971652984619 0.415787994861602783 -0.409509003162384033
5.42187976837158203 13.2187995910644531 25.0370006561279297 -0.790318012237548828 0.606802999973297119 0.0847790986299514771
10.7343997955322266 18.8125 44.1899986267089844 0.328783988952636719 -0.0209078006446361542 -0.944173991680145264
10.5937995910644531 19.0937995910644531 44.108001708984375 0.191644996404647827 0.0492480993270874023 -0.980228006839752197
12.2968997955322266 20.5625 37.9760017395019531 0.161924004554748535 -0.962328970432281494 0.218412995338439941
10.2656002044677734 19.5625 44.1580009460449219 0.176198005676269531 -0.0343019999563694 -0.98375701904296875
12.8593997955322266 21.3125 35.5499992370605469 0.826336979866027832 -0.539444029331207275 0.161763995885848999
9.3125 19.6875 46.1570014953613281 -0.511758029460906982 0.270886987447738647 0.815306007862091064
9.125 19.9375 46.1580009460449219 -0.547917008399963379 0.308595001697540283 0.777531981468200684
13.8281002044677734 23.0937995910644531 30.6149997711181641 0.929741024971008301 0.170458003878593445 0.326384007930755615
10.7656002044677734 21.4062004089355469 40.1739997863769531 -0.474754005670547485 -0.874289989471435547 0.101121999323368073
12.7968997955322266 23.1562004089355469 32.8460006713867188 -0.55801701545715332 0.0598399005830287933 -0.827669024467468262
12.625 23.4062004089355469 32.8610000610351562 -0.31400001049041748 0.495793014764785767 -0.809687018394470215
10.125 22.0625 40.6329994201660156 -0.847208976745605469 -0.359216004610061646 0.391407996416091919
12.3281002044677734 23.9062004089355469 32.779998779296875 0.413107007741928101 -0.552453994750976562 -0.723972976207733154
12.1562004089355469 24.1875 32.7470016479492188 0.159667998552322388 0.00231047999113798141 -0.987168014049530029
11.8437995910644531 24.3437995910644531 33.1899986267089844 -0.170229002833366394 -0.0466249994933605194 -0.984300971031188965
11.5781002044677734 24.9375 32.8950004577636719 -0.000178282993147149682 -0.00493875984102487564 -0.999988019466400146
5.70312023162841797 14.1562004089355469 22.9880008697509766 -0.355863004922866821 0.863655984401702881 0.357015013694763184
8.14062023162841797 13.3125 57.430999755859375 0.238140001893043518 -0.18005099892616272 0.95439600944519043
7.95312023162841797 13.5625 57.5120010375976562 0.162478998303413391 -0.12877500057220459 0.978272974491119385
7.78125 13.8125 57.5289993286132812 0.00672225980088114738 0.00252104992978274822 0.99997401237487793
7.64062023162841797 14.0625 57.4630012512207031 -0.0524316988885402679 0.0283786002546548843 0.998220980167388916
7.57812023162841797 15.4687995910644531 55.4799995422363281 0.0394377000629901886 0.0174818001687526703 -0.999068975448608398
7.3125 15.6562004089355469 55.8089981079101562 -0.599479973316192627 0.423824012279510498 -0.67896801233291626
10.6718997955322266 18.25 44.1839981079101562 0.251792997121810913 0.0361743010580539703 -0.967104971408843994
9.39062023162841797 18.6562004089355469 7.82200002670288086 -0.156872004270553589 -0.985123991966247559 0.0701531022787094116
9.07812023162841797 18.8437995910644531 8.26500034332275391 -0.0261394008994102478 -0.87585902214050293 0.481858998537063599
12.75 21.0625 35.1349983215332031 0.789829015731811523 -0.444150000810623169 0.422966986894607544
13.2343997955322266 21.75 32.9690017700195312 0.880779027938842773 -0.472826987504959106 0.0257390998303890228
13.3125 22.1875 32.1170005798339844 0.610948026180267334 -0.628920018672943115 -0.480834007263183594
11.1562004089355469 21.1562004089355469 38.6590003967285156 -0.579743027687072754 -0.658060014247894287 0.48047301173210144
13.7187995910644531 22.8437995910644531 30.1660003662109375 0.928081989288330078 -0.0488209016621112823 0.369161993265151978
10.9062004089355469 21.3437995910644531 38.9379997253417969 -0.576088011264801025 -0.76721799373626709 0.28195500373840332
10.4531002044677734 21.4062004089355469 39.8569984436035156 -0.577234983444213867 -0.811488986015319824 -0.0910200998187065125
10.3125 21.6562004089355469 39.7910003662109375 -0.706556975841522217 -0.693215012550354004 -0.142232000827789307
9.98437976837158203 21.8125 40.332000732421875 -0.822827994823455811 -0.530498981475830078 0.203776001930236816
10.2187995910644531 22.3437995910644531 39.0050010681152344 -0.946729004383087158 -0.320901989936828613 0.0269280001521110535
10.4531002044677734 22.875 37.6279983520507812 -0.946226000785827637 0.265938013792037964 0.184211000800132751
10.75 23.4687995910644531 36.0540008544921875 -0.811331987380981445 0.567049026489257812 0.142111003398895264
10.9531002044677734 23.9687995910644531 34.7589988708496094 -0.917236983776092529 0.333654999732971191 0.217602998018264771
11.25 24.5625 33.2019996643066406 -0.48097500205039978 0.220538005232810974 -0.848542988300323486
8.85937976837158203 19.0625 8.42899990081787109 -0.245819002389907837 -0.921612977981567383 0.300336003303527832
7.75 19.8125 9.90499973297119141 0.756763994693756104 0.30558699369430542 -0.577862977981567383
8.42187976837158203 13.5312004089355469 55.4809989929199219 0.041072499006986618 -0.0414696000516414642 -0.998295009136199951
8.26562023162841797 13.7812004089355469 55.4809989929199219 0.112167000770568848 -0.306353986263275146 -0.945285975933074951
7.15625 14.125 57.4980010986328125 -0.0244989003986120224 -0.0404146984219551086 0.99888300895690918
7.42187976837158203 15.0625 55.4659996032714844 -0.0357402004301548004 0.0734146982431411743 -0.996661007404327393
7.21875 15.3125 55.5649986267089844 -0.486034989356994629 0.400929003953933716 -0.776548027992248535
8.42187976837158203 20.5937995910644531 7.1659998893737793 -0.0466292984783649445 -0.145925998687744141 -0.988196015357971191
12.5781002044677734 20.6875 35.1030006408691406 0.821188986301422119 -0.343867987394332886 0.455415010452270508
7.65625 20.875 8.51000022888183594 -0.87995302677154541 0.411087006330490112 0.238095998764038086
8.89062023162841797 19 46.1370010375976562 -0.601022005081176758 0.217506006360054016 0.769066989421844482
11.6093997955322266 20.8125 37.1520004272460938 -0.0692175030708312988 -0.985651016235351562 0.15395200252532959
9.28125 19.6562004089355469 44.2350006103515625 -0.167952999472618103 0.298117995262145996 -0.93963700532913208
13.5937995910644531 22.5312004089355469 29.9720001220703125 0.862034976482391357 -0.328480005264282227 0.386002004146575928
12.5625 22.2187995910644531 32.8240013122558594 -0.42681199312210083 0.226537004113197327 -0.875506997108459473
10.7187995910644531 21.3437995910644531 38.3499984741210938 -0.712337970733642578 -0.663834989070892334 0.227810993790626526
13.2968997955322266 23.8125 28.7089996337890625 0.741837024688720703 0.629965007305145264 0.229829996824264526
10.3125 22.5625 37.4319992065429688 -0.934948980808258057 0.0503953993320465088 0.351184993982315063
12.375 23.9687995910644531 30.5949993133544922 0.259368985891342163 0.821860015392303467 0.507221996784210205
12.0781002044677734 24.1562004089355469 30.9400005340576172 0.25361400842666626 0.835048973560333252 0.488234013319015503
10.7968997955322266 23.6875 34.5960006713867188 -0.837036013603210449 0.528733015060424805 0.140754997730255127
10.9687995910644531 24.5625 32.8909988403320312 -0.0241656992584466934 0.580886006355285645 -0.813625991344451904
8.125 22.2812004089355469 5.31300020217895508 -0.781350016593933105 -0.0743056982755661011 0.619652986526489258
7.82812023162841797 12.5312004089355469 57.38800048828125 0.363043993711471558 -0.305534005165100098 0.880254983901977539
8.10937976837158203 13.4062004089355469 55.4370002746582031 0.0497598014771938324 0.236028000712394714 -0.970471024513244629
7.9375 13.6562004089355469 55.4690017700195312 0.0683650970458984375 -0.208012998104095459 -0.97573399543762207
7.59375 14.1562004089355469 55.5029983520507812 0.0507357008755207062 -0.0781683996319770813 -0.995648026466369629
7.4375 14.4375 55.4370002746582031 -0.0724389031529426575 -0.063144296407699585 -0.995371997356414795
7.26562023162841797 14.6875 55.4539985656738281 -0.0244003999978303909 -0.0436130985617637634 -0.998749971389770508
10.0312004089355469 17.9375 44.1739997863769531 0.0669104009866714478 -0.234702005982398987 -0.969762027263641357
6.39062023162841797 14.7812004089355469 33.8889999389648438 -0.812376022338867188 0.498355001211166382 0.302799999713897705
8.73437976837158203 18.5937995910644531 46.1910018920898438 -0.579568982124328613 0.253286987543106079 0.77456200122833252
8.92187976837158203 19.4375 44.4379997253417969 -0.669458985328674316 0.430352985858917236 -0.605493009090423584
13.6562004089355469 22.5937995910644531 28.7789993286132812 0.846159994602203369 0.122776001691818237 0.518593013286590576
11.0468997955322266 21.2187995910644531 36.8790016174316406 -0.308696001768112183 -0.935652971267700195 0.171057999134063721
10.375 21.5 37.9939994812011719 -0.710253000259399414 -0.612484991550445557 0.346991986036300659
10.25 22.1875 37.2239990234375 -0.94211500883102417 -0.0513481013476848602 0.331335991621017456
10.0781002044677734 22.4687995910644531 37.1910018920898438 -0.487565010786056519 -0.466859012842178345 0.737782001495361328
10.5781002044677734 23.1875 34.9449996948242188 -0.866189002990722656 0.477034002542495728 0.148845002055168152
10.6406002044677734 23.5937995910644531 34.1749992370605469 -0.964035987854003906 0.264741003513336182 -0.0234011001884937286
11.1562004089355469 24.6562004089355469 31.3719997406005859 0.628620028495788574 0.766099989414215088 0.1338919997215271
7.75 11.9687995910644531 57.4760017395019531 0.29427000880241394 -0.0561177991330623627 0.954073011875152588
8.03125 12.875 55.4760017395019531 0.190561994910240173 -0.035762101411819458 -0.981024026870727539
7.375 13.9062004089355469 55.4760017395019531 0.0678227022290229797 -0.0650319010019302368 -0.995576024055480957
6.78125 14.2187995910644531 56.3460006713867188 -0.9685630202293396 0.232155993580818176 0.0893786996603012085
10.3125 16.875 44.2130012512207031 0.568903982639312744 -0.441388994455337524 -0.693919003009796143
9.375 17 46.16400146484375 0.0974714010953903198 -0.0405407994985580444 0.994412004947662354
9.48437976837158203 18.1562004089355469 44.180999755859375 -0.0137492995709180832 -0.0630208030343055725 -0.997918009757995605
9.32812023162841797 18.4062004089355469 44.16400146484375 -0.00418181996792554855 0.00118450005538761616 -0.999990999698638916
9.15625 18.6562004089355469 44.1800003051757812 -0.113503001630306244 0.00343192997388541698 -0.993532001972198486
8.70312023162841797 18.7187995910644531 45.1160011291503906 -0.89041602611541748 0.343544989824295044 0.298557013273239136
11.6718997955322266 20.6875 35.2939987182617188 -0.0589365996420383453 -0.819150984287261963 0.570541977882385254
13.3906002044677734 22.2187995910644531 29.0480003356933594 0.904520988464355469 -0.30973699688911438 0.293094009160995483
6.26562023162841797 13.5625 36.0369987487792969 -0.250214993953704834 0.897059023380279541 0.364250004291534424
5.57812023162841797 13.125 38.25 -0.607134997844696045 0.789377987384796143 0.0909390002489089966
14.0156002044677734 23.4062004089355469 25.819000244140625 0.900879025459289551 0.0869413018226623535 0.425274014472961426
10.1406002044677734 21.5312004089355469 37.5239982604980469 -0.809059977531433105 -0.495692998170852661 0.315768986940383911
9.95312023162841797 21.75 37.6240005493164062 -0.906799972057342529 -0.27903398871421814 0.315995991230010986
10.1718997955322266 22.2812004089355469 36.345001220703125 -0.944400012493133545 -0.314202994108200073 -0.0968827977776527405
10.375 22.7812004089355469 35.0979995727539062 -0.858357012271881104 0.51294100284576416 -0.0106878001242876053
10.5156002044677734 23.25 34.0340003967285156 -0.715179979801177979 -0.140295997262001038 -0.684714972972869873
10.7187995910644531 23.7812004089355469 32.7719993591308594 -0.883167028427124023 0.432186007499694824 0.182291999459266663
5.32812023162841797 12.5937995910644531 39.6279983520507812 -0.772189021110534668 0.581101000308990479 0.256992995738983154
0.171875 8.15625 0.347000002861022949 -0.842396974563598633 -0.171698004007339478 0.510770022869110107
7.65625 12.125 56.457000732421875 0.847874999046325684 -0.525394022464752197 -0.0712011978030204773
6.59375 11.7812004089355469 59.4249992370605469 0.676594018936157227 -0.318608999252319336 0.663859009742736816
7.04687976837158203 12.4062004089355469 57.4249992370605469 -0.0965169966220855713 -0.11794000118970871 0.988318979740142822
6.875 12.6562004089355469 57.4739990234375 -0.565807998180389404 -0.143804997205734253 0.811900019645690918
6.92187976837158203 13.25 34.9550018310546875 0.345506012439727783 0.817731022834777832 0.460372000932693481
6.96875 13.8437995910644531 55.5079994201660156 -0.156599998474121094 -0.126357004046440125 -0.979546010494232178
6.42187976837158203 13.8437995910644531 56.7210006713867188 -0.805701971054077148 0.425689995288848877 0.411864995956420898
10.0781002044677734 16.5937995910644531 44.1959991455078125 0.11783599853515625 -0.154027000069618225 -0.981015026569366455
9.26562023162841797 17.125 45.2449989318847656 -0.599566996097564697 -0.177879005670547485 0.780306994915008545
8.625 17.4687995910644531 46.1949996948242188 -0.353906005620956421 -0.0742695033550262451 0.932326972484588623
12.1406002044677734 19.7812004089355469 34.6360015869140625 0.284963011741638184 0.145999997854232788 0.947354018688201904
8.3125 18 46.0970001220703125 -0.723290026187896729 0.301432996988296509 0.621280014514923096
12.8281002044677734 21 31.2099990844726562 0.254083007574081421 -0.925828993320465088 0.279789000749588013
8.73437976837158203 18.625 44.1959991455078125 0.102145999670028687 0.16714400053024292 -0.980627000331878662
13.2187995910644531 21.625 29.3570003509521484 0.803187012672424316 -0.521692991256713867 0.287622988224029541
13.6562004089355469 22.25 27.3899993896484375 0.982110023498535156 -0.150392994284629822 0.113324999809265137
13.875 22.7812004089355469 26.1110000610351562 0.865000009536743164 0.126471996307373047 0.485570996999740601
13.7343997955322266 23.0625 25.9810009002685547 0.86671900749206543 0.189327001571655273 0.461468994617462158
5.01562023162841797 12.0312004089355469 41.1689987182617188 -0.945518016815185547 0.225454002618789673 0.234873995184898376
7.6875 13.375 32.98699951171875 0.016202099621295929 -0.0236814003437757492 -0.9995880126953125
7.375 13.1875 33.9710006713867188 0.531774997711181641 -0.0249349009245634079 0.846517980098724365
9.95312023162841797 21.6875 36.73699951171875 -0.93217998743057251 -0.332024991512298584 0.144224002957344055
13.0312004089355469 24.125 25.9650001525878906 0.441745996475219727 0.820363998413085938 0.363130003213882446
10.3593997955322266 22.6875 34.2599983215332031 -0.839348018169403076 0.538062989711761475 -0.0773499011993408203
10.6093997955322266 23.2187995910644531 32.8839988708496094 -0.0122021995484828949 0.00814204011112451553 0.999891996383666992
11.0468997955322266 24.25 30.292999267578125 0.351588010787963867 0.150640994310379028 0.923955023288726807
11.1875 24.7187995910644531 29.2770004272460938 -0.053667701780796051 0.845480978488922119 0.531301975250244141
6.70312023162841797 11.3125 58.8819999694824219 0.287891000509262085 -0.0936618968844413757 0.953072011470794678
6.45312023162841797 11.5 59.1609992980957031 -0.113379999995231628 -0.92867201566696167 0.353147000074386597
6.28125 11.7187995910644531 59.2430000305175781 0.576157987117767334 -0.254078000783920288 0.776844024658203125
6.96875 12.5 56.4889984130859375 -0.516399025917053223 -0.850053012371063232 -0.103643998503684998
6.57812023162841797 12.5937995910644531 57.2430000305175781 -0.214147999882698059 -0.0489065013825893402 0.97557598352432251
6.1875 13.0625 57.4580001831054688 -0.115007996559143066 -0.000674275972414761782 0.99336397647857666
9.89062023162841797 16.2187995910644531 44.1599998474121094 -0.0247479993849992752 -0.048487398773431778 -0.998516976833343506
8.82812023162841797 17.3125 44.9640007019042969 -0.744624972343444824 -0.0269444994628429413 -0.666939020156860352
8.39062023162841797 17.375 45.8650016784667969 -0.787227988243103027 -0.0105251995846629143 0.616572022438049316
12.3281002044677734 19.9687995910644531 32.8810005187988281 0.557573020458221436 -0.196811005473136902 -0.806460022926330566
8.54687976837158203 18.2187995910644531 44.2099990844726562 -0.120739996433258057 0.178835004568099976 -0.976442992687225342
8.42187976837158203 18.5 44.1110000610351562 -0.180962994694709778 -0.468169987201690674 -0.864910006523132324
0.578125 8.5625 1.02499997615814209 -0.935222983360290527 0.190387994050979614 -0.298514008522033691
0.828125 8 1.23899996280670166 -0.641273021697998047 -0.76692497730255127 -0.0243929997086524963
11.3593997955322266 20.8125 33.8650016784667969 -0.354198992252349854 0.870702028274536133 0.341205000877380371
13.8125 22.7812004089355469 25.1919994354248047 0.977020025253295898 -0.185809001326560974 -0.104433998465538025
10.5 21.3125 35.0449981689453125 -0.49888300895690918 -0.0897750034928321838 0.862007021903991699
13.7031002044677734 23.8125 23.8789997100830078 0.866923987865447998 0.498371005058288574 -0.00829450041055679321
7.60937976837158203 12.9687995910644531 33.7739982604980469 0.708423972129821777 0.646489977836608887 0.283170998096466064
10.5937995910644531 23.25 31.8810005187988281 -0.302785992622375488 0.148817002773284912 -0.941367983818054199
10.8125 24.0937995910644531 30.0939998626708984 -0.327858000993728638 0.758394002914428711 0.563336014747619629
11.1718997955322266 24.7187995910644531 28.3080005645751953 -0.339493006467819214 0.920585989952087402 0.193040996789932251
7 11 57.5909996032714844 -0.0489053018391132355 -0.243147999048233032 0.968755006790161133
7.51562023162841797 11.6562004089355469 55.3779983520507812 0.276362001895904541 -0.273214995861053467 -0.921400010585784912
7.75 12.1875 54.0660018920898438 0.259341001510620117 0.965054988861083984 -0.0375595018267631531
7 12.4062004089355469 55.4449996948242188 0.0378305986523628235 0.00433648005127906799 -0.999275028705596924
6.84375 12.6875 55.4119987487792969 0.0262476000934839249 -0.0196908991783857346 -0.999462008476257324
6.59375 12.875 55.7220001220703125 -0.0380010008811950684 0.00795067008584737778 -0.999246001243591309
6.34375 13.4062004089355469 55.4770011901855469 -0.232409998774528503 -0.058473099023103714 -0.970858991146087646
9.29687976837158203 16.4062004089355469 44.1650009155273438 0.06394919753074646 -0.0159706994891166687 -0.997825026512145996
11.9375 19.25 33.819000244140625 0.759769976139068604 -0.588905990123748779 0.275570988655090332
12.0468997955322266 19.6562004089355469 32.9339981079101562 -0.0452204011380672455 -0.0972966998815536499 -0.994228005409240723
8.42187976837158203 17.625 44.3279991149902344 -0.104745998978614807 -0.149636998772621155 -0.983177006244659424
0.765625 8.625 1.59300005435943604 -0.831701993942260742 0.266517013311386108 0.487073987722396851
1.07811999320983887 8.09375 1.64199995994567871 -0.679203987121582031 -0.56275099515914917 0.471161007881164551
11.5468997955322266 20.4062004089355469 32.917999267578125 0.0392630994319915771 -0.120572000741958618 -0.991927981376647949
11.2187995910644531 20.9375 32.8860015869140625 -0.174253001809120178 -0.160934999585151672 -0.971460998058319092
10.7812004089355469 21.0312004089355469 33.7379989624023438 -0.480210989713668823 0.866008996963500977 -0.139375999569892883
10.5937995910644531 21.2812004089355469 33.819000244140625 -0.947735011577606201 -0.0979930981993675232 -0.30363801121711731
14.1718997955322266 23.6562004089355469 21.9650001525878906 0.896058976650238037 0.369087010622024536 0.246684998273849487
9.76562023162841797 21.7812004089355469 34.9189987182617188 -0.966027021408081055 0.0318792015314102173 0.25646701455116272
4.90625 11.25 42.5789985656738281 -0.994579970836639404 -0.014355500228703022 0.102973997592926025
8.03125 12.875 32.9059982299804688 0.345766007900238037 0.0702404975891113281 -0.935688018798828125
4.60937976837158203 10.6875 44.0709991455078125 -0.784133017063140869 -0.296501010656356812 -0.545180976390838623
10.9375 24.0625 28.7220001220703125 -0.646322011947631836 0.69800800085067749 0.308308005332946777
6.85937976837158203 10.5312004089355469 57.4959983825683594 0.219367995858192444 0.116980999708175659 0.968604028224945068
7.3125 11.1875 55.4630012512207031 0.273966014385223389 -0.308171004056930542 -0.91102898120880127
7.57812023162841797 11.75 54.0040016174316406 0.868938028812408447 0.407321006059646606 0.281132996082305908
5.875 11.375 58.4959983825683594 -0.0707622990012168884 -0.50163799524307251 0.862178981304168701
6.53125 12.5 55.2989997863769531 -0.082986101508140564 0.164877995848655701 -0.982816994190216064
6.4375 12.7812004089355469 55.08599853515625 -0.108121998608112335 0.160784006118774414 -0.981049001216888428
6 13.2187995910644531 55.430999755859375 -0.348167002201080322 0.180629000067710876 -0.919866025447845459
8.75 16.5 44.167999267578125 -0.0679996013641357422 -0.0561824999749660492 -0.996101975440979004
11.4218997955322266 18.5937995910644531 34.8699989318847656 0.647682011127471924 -0.322447985410690308 0.69031602144241333
0.984375 8.875 1.73399996757507324 -0.661396980285644531 0.58968198299407959 0.463495999574661255
1.0625 8.21875 2.45600008964538574 -0.918588995933532715 -0.276407003402709961 0.282476991415023804
11.8593997955322266 19.25 32.8380012512207031 -0.257016003131866455 -0.17834000289440155 -0.949809014797210693
8.25 17.25 44.167999267578125 0.0471660010516643524 0.203023999929428101 -0.978036999702453613
12.7968997955322266 20.625 28.625 0.650313973426818848 -0.716328978538513184 0.252911001443862915
13.0781002044677734 21.1875 27.1329994201660156 0.864883005619049072 -0.486220002174377441 0.124770000576972961
13.6406002044677734 21.9687995910644531 24.6730003356933594 0.895887970924377441 -0.436500996351242065 -0.0827687010169029236
10.8125 20.8125 32.904998779296875 0.0271406006067991257 -0.0964549034833908081 -0.994966983795166016
14.2031002044677734 23.4375 21.1650009155273438 0.952005982398986816 0.265403002500534058 0.152465000748634338
13.875 23.5937995910644531 21.6569995880126953 0.87331998348236084 0.445158004760742188 0.197857007384300232
10.0156002044677734 21.4062004089355469 33.8549995422363281 -0.866590976715087891 0.128998994827270508 -0.48205798864364624
9.60937976837158203 21.5 34.6090011596679688 -0.971217989921569824 0.164171993732452393 0.172575995326042175
12.8437995910644531 24.0625 23.3290004730224609 0.503500998020172119 0.860656023025512695 0.0758882984519004822
4.73437976837158203 10.4062004089355469 44.2019996643066406 -0.228797003626823425 -0.891032993793487549 0.392060995101928711
4.5 10.25 44.9729995727539062 0.0844999030232429504 0.379191011190414429 -0.921451985836029053
11.8437995910644531 24.5312004089355469 24.8869991302490234 0.101268000900745392 0.993183016777038574 0.0577296018600463867
10.8125 24.1875 27.7409992218017578 -0.587580978870391846 0.795837998390197754 -0.146253004670143127
5.54687976837158203 10.5312004089355469 42.1360015869140625 -0.358330994844436646 -0.890983998775482178 0.278829008340835571
4.39062023162841797 9.8125 45.8909988403320312 -0.5830879807472229 0.0987654998898506165 0.806383013725280762
6.5 10.3125 57.4630012512207031 0.0760027021169662476 0.0932364016771316528 0.992739021778106689
6.45312023162841797 10.6562004089355469 57.0849990844726562 0.291112005710601807 0.339915990829467773 0.894266009330749512
6.1875 10.875 57.3800010681152344 0.0196682997047901154 0.0611937008798122406 0.997932016849517822
6.45312023162841797 11.75 55.4290008544921875 -0.0371357984840869904 -0.0559944994747638702 -0.997739970684051514
1.09375 9.28125 1.91600000858306885 -0.925786018371582031 -0.261777013540267944 0.272751986980438232
1 8.5 3.27600002288818359 -0.965785980224609375 -0.220638006925582886 -0.136291995644569397
1.64061999320983887 7.8125 2.66899991035461426 -0.603379011154174805 -0.730498015880584717 0.319853007793426514
5.95312023162841797 12.4687995910644531 55.5120010375976562 -0.023023899644613266 0.0850080028176307678 -0.996114015579223633
5.8125 12.75 55.4300003051757812 -0.0149261998012661934 0.296106010675430298 -0.955039024353027344
9.23437976837158203 14.9687995910644531 44.2309989929199219 0.340086013078689575 -0.297428011894226074 -0.892120003700256348
8.57812023162841797 12.0625 32.8230018615722656 0.58690798282623291 -0.157979995012283325 -0.794091999530792236
8.40625 16.2812004089355469 44.1500015258789062 0.0334264002740383148 0.0856797993183135986 -0.995761990547180176
11.6406002044677734 18.75 32.9690017700195312 0.268220990896224976 -0.223909005522727966 -0.936975002288818359
7.5625 16.8125 45.2820014953613281 -0.850259006023406982 0.437397986650466919 0.292818009853363037
11.3437995910644531 19.2812004089355469 32.8540000915527344 0.357165992259979248 -0.253526002168655396 -0.898976027965545654
12.6562004089355469 20.5312004089355469 27.9680004119873047 0.457078009843826294 -0.836812973022460938 0.301369994878768921
12.9218997955322266 21.0937995910644531 26.4750003814697266 0.872516989707946777 -0.488328993320465088 -0.015794999897480011
13.3906002044677734 21.7812004089355469 24.3770008087158203 0.867811977863311768 -0.49504399299621582 0.0428161993622779846
14.1562004089355469 23.0312004089355469 20.7049999237060547 0.0406965985894203186 -0.941411018371582031 -0.334796011447906494
14.0625 23.3437995910644531 20.4920005798339844 -0.0810400992631912231 -0.0411563999950885773 -0.9958609938621521
10.1406002044677734 21.0937995910644531 32.9039993286132812 0.140345007181167603 -0.0928357020020484924 0.985741019248962402
9.96875 21.3437995910644531 32.9039993286132812 -0.789834022521972656 0.106335997581481934 0.604031980037689209
10.1406002044677734 22.25 31.1319999694824219 -0.78030097484588623 -0.617978990077972412 0.0960856005549430847
10.4218997955322266 22.8125 29.6580009460449219 -0.912414014339447021 0.0250914990901947021 0.408497989177703857
12.3125 24.4375 22.8040008544921875 0.192662999033927917 0.950688004493713379 0.243049994111061096
1.29688000679016113 9.40625 2.21799993515014648 -0.983668982982635498 0.152104005217552185 0.096227400004863739
1.0625 8.53125 3.98799991607666016 -0.906574010848999023 -0.421696007251739502 -0.0172202996909618378
1.85938000679016113 7.90625 3.00399994850158691 -0.696537017822265625 -0.63334500789642334 0.337208986282348633
10.5625 24 27.4930000305175781 -0.466470003128051758 0.822041988372802734 -0.326577991247177124
11.5781002044677734 24.6875 24.0990009307861328 -0.124519996345043182 0.991055011749267578 0.048002198338508606
11 24.6562004089355469 25.4610004425048828 -0.469974011182785034 0.846027016639709473 0.251718014478683472
2.59375 3.6875 44.1189994812011719 -0.0707881003618240356 -0.248640000820159912 -0.966005980968475342
2.4375 3.9375 44.1349983215332031 -0.247069001197814941 -0.239609003067016602 -0.938906013965606689
5.125 6.625 33.9370002746582031 0.703015983104705811 -0.550406992435455322 0.450356006622314453
6.35937976837158203 9.84375 57.4370002746582031 0.192524999380111694 -0.171647995710372925 0.966162979602813721
6.79687976837158203 10.5 55.4539985656738281 -0.297690004110336304 0.197492003440856934 -0.934010982513427734
6.5625 10.7187995910644531 55.6669998168945312 0.129031002521514893 0.0514978989958763123 -0.990302026271820068
6.4375 11 55.5019989013671875 0.151607006788253784 -0.213352993130683899 -0.965139985084533691
7.84375 12.2812004089355469 50.4039993286132812 0.828606009483337402 0.527092993259429932 0.188638001680374146
5.34375 11.375 57.5040016174316406 -0.587081015110015869 -0.799134016036987305 -0.129308998584747314
5.625 11.875 56.1100006103515625 -0.811493992805480957 0.582822024822235107 -0.0423839986324310303
5.65625 12.2812004089355469 55.4379997253417969 -0.0697778016328811646 -0.0709213018417358398 -0.995037972927093506
8.9375 14.7812004089355469 44.1399993896484375 0.170935004949569702 -0.181180998682975769 -0.968481004238128662
8.09375 16.0312004089355469 44.1739997863769531 -0.053189300000667572 -0.101865999400615692 -0.993375003337860107
7.3125 15.875 46.1910018920898438 -0.800702989101409912 0.224962994456291199 0.55521702766418457
11.375 18.5312004089355469 32.8279991149902344 0.163167998194694519 0.0522402003407478333 -0.985213994979858398
4.79687976837158203 7.15625 33.9529991149902344 0.0764992013573646545 -0.440118014812469482 0.894676029682159424
11 19.0625 32.9269981384277344 0.058171100914478302 0.0483319014310836792 -0.99713599681854248
1.4375 9.375 3.06399989128112793 -0.875729024410247803 0.458721011877059937 -0.150576993823051453
1.29688000679016113 8.5625 4.52400016784667969 -0.777625977993011475 -0.600426971912384033 0.186509996652603149
2.21875 7.6875 3.55500006675720215 -0.509546995162963867 -0.836263000965118408 0.202546998858451843
11.8593997955322266 20.375 28.9589996337890625 -0.107142001390457153 -0.947452008724212646 0.301423996686935425
10.9062004089355469 20.8437995910644531 30.4669990539550781 -0.421501994132995605 -0.799086987972259521 0.428714990615844727
10.7031002044677734 21.0625 30.5830001831054688 -0.378473997116088867 -0.77668297290802002 0.50350797176361084
15.1093997955322266 24 16.0069999694824219 0.983195006847381592 0.0753616988658905029 0.16627800464630127
9.85937976837158203 20.875 32.8120002746582031 -0.531091988086700439 -0.0629087015986442566 0.844974994659423828
9.29687976837158203 20.875 34.0760002136230469 -0.75449901819229126 0.655770003795623779 -0.0264008995145559311
10.1093997955322266 21.4375 31.3689994812011719 -0.352293014526367188 -0.103681996464729309 -0.930128991603851318
9.89062023162841797 22.0625 30.9270000457763672 0.298555999994277954 -0.682244002819061279 -0.667388021945953369
10.0625 22.5312004089355469 29.8290004730224609 -0.911691009998321533 -0.327385991811752319 0.248269006609916687
10.5156002044677734 23.5625 27.2229995727539062 -0.509311020374298096 0.84900897741317749 -0.140664994716644287
10.6406002044677734 24.0312004089355469 26.2210006713867188 -0.506585001945495605 0.650462985038757324 0.565923988819122314
10.7656002044677734 24.4687995910644531 25.2390003204345703 -0.669017970561981201 0.72095102071762085 0.180680006742477417
5.125 7.34375 32.8870010375976562 0.550536990165710449 -0.417032003402709961 -0.723182976245880127
7.54687976837158203 9.875 23.6070003509521484 0.0144950002431869507 -0.375037997961044312 -0.926895976066589355
7.84375 10.4062004089355469 22.1310005187988281 0.865198016166687012 -0.440654993057250977 -0.239280998706817627
3.78125 8.625 34.2000007629394531 -0.764289975166320801 0.0116879995912313461 0.644765973091125488
6.64062023162841797 10 55.4760017395019531 0.141690999269485474 0.162144005298614502 -0.976540982723236084
1.59375 9.84375 3.05100011825561523 -0.858403980731964111 0.50507199764251709 -0.0896959006786346436
1.35938000679016113 8.96875 4.86999988555908203 -0.919169008731842041 0.0958736985921859741 0.382016986608505249
1.6875 8.4375 4.82100009918212891 -0.486975014209747314 -0.847015976905822754 0.213116005063056946
2.46875 7.78125 3.90199995040893555 -0.487735986709594727 -0.830897986888885498 0.26780998706817627
5.71875 10.125 57.4259986877441406 0.0499216988682746887 0.014085100032389164 0.998654007911682129
6.17187976837158203 10.75 55.4430007934570312 0.414168000221252441 -0.0836365967988967896 -0.906350016593933105
5.23437976837158203 10.875 57.4109992980957031 -0.133755996823310852 0.888255000114440918 0.439446002244949341
5.21875 11.2187995910644531 56.9529991149902344 -0.43539699912071228 0.365110993385314941 0.822875022888183594
5.5625 12.1875 54.7050018310546875 -0.445430010557174683 0.105223998427391052 -0.889111995697021484
6.10937976837158203 12.9062004089355469 52.3279991149902344 -0.101193003356456757 0.990455985069274902 0.0935743004083633423
10.7968997955322266 17.4062004089355469 34.8339996337890625 0.622235000133514404 -0.34841001033782959 0.701022982597351074
7.17187976837158203 15.4062004089355469 46.1459999084472656 -0.678327023983001709 0.293132990598678589 0.673754990100860596
7.57812023162841797 16.0625 44.2280006408691406 -0.324400991201400757 0.0799961984157562256 -0.942530989646911621
7.375 16.3125 44.3429985046386719 -0.694222986698150635 0.295823991298675537 -0.656157970428466797
12.4843997955322266 20.0312004089355469 26.9799995422363281 0.29937899112701416 -0.921522021293640137 0.247326001524925232
12.2187995910644531 20.2187995910644531 27.2919998168945312 0.00417004013434052467 -0.946120977401733398 0.323785990476608276
13.0468997955322266 21.125 24.0289993286132812 0.811469972133636475 -0.583669006824493408 0.0291067995131015778
13.7656002044677734 22.3437995910644531 20.5380001068115234 0.0744964033365249634 0.258955985307693481 -0.963011980056762695
15.0468997955322266 23.5937995910644531 15.6840000152587891 0.903078973293304443 0.0171278007328510284 0.429132014513015747
14.8593997955322266 23.8437995910644531 15.6999998092651367 0.856769979000091553 -0.0705915018916130066 0.510843992233276367
15.7812004089355469 24.4687995910644531 12.6840000152587891 0.704158008098602295 0.623520016670227051 0.339682996273040771
9.46875 20.6562004089355469 32.9329986572265625 -0.535888016223907471 0.841916978359222412 -0.0632535964250564575
1.875 10.0312004089355469 3.21900010108947754 -0.904129981994628906 0.38946300745010376 0.175688996911048889
1.48438000679016113 9.4375 4.95699977874755859 -0.900487005710601807 0.418354004621505737 0.118753001093864441
1.48438000679016113 8.75 5.94099998474121094 -0.888704001903533936 -0.422118991613388062 0.178944006562232971
2.60938000679016113 7.9375 4.43300008773803711 -0.382568985223770142 -0.88541799783706665 0.263960003852844238
10.375 21.25 29.9650001525878906 -0.6228790283203125 -0.7093619704246521 0.329890996217727661
9.32812023162841797 20.9375 32.8510017395019531 0.433652013540267944 0.388182014226913452 0.813180029392242432
14.6718997955322266 24.5 15.1750001907348633 0.628190994262695312 0.595472991466522217 0.500787019729614258
9.64062023162841797 21.875 30.6700000762939453 -0.523504018783569336 -0.827728986740112305 0.202010005712509155
13.2343997955322266 24.2812004089355469 18.8159999847412109 0.57293701171875 0.710641026496887207 0.408327996730804443
10.0156002044677734 22.5 28.8840007781982422 -0.0106143997982144356 -0.304816991090774536 0.952351987361907959
13.1875 24.625 18.4060001373291016 0.243202000856399536 0.966669023036956787 0.0800250992178916931
12.3437995910644531 24.4375 20.6030006408691406 0.648913025856018066 0.733999013900756836 0.200393006205558777
10.6406002044677734 24.0937995910644531 25.0310001373291016 -0.785852015018463135 0.617016017436981201 -0.0415613017976284027
5.21875 10.25 28.5090007781982422 -0.608748018741607666 -0.774083971977233887 0.173839002847671509
4.98437976837158203 10.4375 28.7709999084472656 -0.689284980297088623 -0.722796022891998291 0.0495176017284393311
4.60937976837158203 10.5625 29.4610004425048828 -0.767773985862731934 -0.599409997463226318 0.226341992616653442
9.6875 14.0625 12.4899997711181641 0.307377010583877563 0.951384007930755615 -0.0196841992437839508
5.90625 9.1875 57.3969993591308594 0.0634564980864524841 0.0619736984372138977 0.996057987213134766
5.73437976837158203 9.40625 57.4630012512207031 -0.00173786003142595291 0.00178676994983106852 0.99999701976776123
6.84375 10.4687995910644531 53.3149986267089844 0.00465783989056944847 -0.999848008155822754 -0.016777699813246727
6.46875 10.5937995910644531 54.0029983520507812 -0.4985789954662323 -0.694218993186950684 0.519114017486572266
5.25 10.1562004089355469 57.4970016479492188 -0.179305002093315125 0.0059733102098107338 0.983775019645690918
5.07812023162841797 10.4375 57.4799995422363281 -0.321978002786636353 0.147048994898796082 0.935257971286773682
1.95311999320983887 10.3437995910644531 3.54200005531311035 -0.913923025131225586 0.388529002666473389 0.117434002459049225
1.79688000679016113 9.90625 4.52600002288818359 -0.830667018890380859 0.527493000030517578 -0.178165003657341003
1.45311999320983887 8.96875 6.67299985885620117 -0.852928996086120605 -0.231682002544403076 0.467799007892608643
2.21875 8.3125 5.78700017929077148 -0.503693997859954834 -0.821179986000061035 0.268243998289108276
2.82811999320983887 8 4.78700017929077148 -0.481716006994247437 -0.838759005069732666 0.253838002681732178
7.9375 12.25 48.1500015258789062 0.973610997200012207 0.0387258008122444153 0.22490200400352478
5.5625 11.0937995910644531 55.3479995727539062 -0.00488999998196959496 -0.00422204006463289261 -0.999979019165039062
5.21875 11.5937995910644531 55.4469985961914062 -0.273766994476318359 0.0165235996246337891 -0.961654007434844971
6.92187976837158203 12.6875 49.8559989929199219 0.41451600193977356 0.836826980113983154 0.357625991106033325
5.92187976837158203 12.75 52.1020011901855469 -0.405135989189147949 0.913483977317810059 0.0375748984515666962
5.90625 13.0937995910644531 51.6269989013671875 -0.285324990749359131 0.95463097095489502 0.0852594971656799316
7.8125 15.0625 44.2490005493164062 0.0386877991259098053 -0.0465467981994152069 -0.998166978359222412
7.64062023162841797 15.3125 44.2490005493164062 -0.021882200613617897 -0.199173003435134888 -0.979719996452331543
7.5 15.5937995910644531 44.1510009765625 -0.00322458008304238319 0.0047685401514172554 -0.999983012676239014
10.5937995910644531 18.3125 32.9519996643066406 -0.0139723997563123703 0.00238317996263504028 -0.999899983406066895
10.4218997955322266 18.5625 32.9519996643066406 0.0221414994448423386 -0.0555039010941982269 -0.998212993144989014
10.2656002044677734 18.8437995910644531 32.8870010375976562 0.070978902280330658 -0.114041998982429504 -0.990936994552612305
12.5312004089355469 20.3125 25.4430007934570312 0.435151994228363037 -0.894024014472961426 -0.10659799724817276
10.0937995910644531 19.0937995910644531 32.8870010375976562 -0.0220346003770828247 -0.123926997184753418 -0.992047011852264404
9.92187976837158203 19.375 32.9039993286132812 -0.14225199818611145 -0.055109899491071701 -0.988295018672943115
9.75 19.625 32.88800048828125 -0.00341163994744420052 -0.0303134992718696594 -0.999535024166107178
14.1718997955322266 22.5625 18.2950000762939453 0.713303029537200928 -0.312739014625549316 0.62721097469329834
9.57812023162841797 19.875 32.9199981689453125 -0.0379782989621162415 0.0452825985848903656 -0.998251974582672119
14.2656002044677734 22.9687995910644531 17.4430007934570312 0.99681699275970459 0.0777534022927284241 0.0176274999976158142
9.40625 20.1562004089355469 32.9029998779296875 0.234685003757476807 0.415479987859725952 0.878805994987487793
13.1718997955322266 22.625 20.4920005798339844 0.770144999027252197 0.334816992282867432 -0.542931020259857178
1.96875 10.4062004089355469 4.40399980545043945 -0.869548022747039795 0.493847012519836426 0.00110194995068013668
1.84375 9.59375 5.81500005722045898 -0.852497994899749756 0.522633016109466553 0.0101472996175289154
1.75 8.78125 7.17600011825561523 -0.715973019599914551 -0.29381600022315979 0.633288979530334473
7.1875 4.5 0.304001003503799438 -0.441273987293243408 -0.874312996864318848 0.202123001217842102
13.0156002044677734 22.875 20.4599990844726562 0.743098974227905273 0.326330989599227905 0.584219992160797119
15.2812004089355469 24.75 12.4580001831054688 0.397682994604110718 0.775336027145385742 0.490615010261535645
14.7343997955322266 24.75 13.6540002822875977 0.568000972270965576 0.822341978549957275 0.033591199666261673
9.84375 22.2812004089355469 28.6900005340576172 -0.772745013236999512 -0.255145013332366943 0.581176996231079102
12.7968997955322266 24.625 18.3120002746582031 0.519836008548736572 0.837375998497009277 0.169031992554664612
12.6562004089355469 24.9062004089355469 18.1970005035400391 0.672402024269104004 0.653250992298126221 0.34804999828338623
10.7812004089355469 24.0312004089355469 23.8540000915527344 -0.690890014171600342 0.721823990345001221 -0.0405130982398986816
11.625 24.9375 20.5090007781982422 0.172178998589515686 0.982903003692626953 -0.0652415007352828979
8.75 14.2187995910644531 14.4899997711181641 0.365835011005401611 0.880693018436431885 0.300904989242553711
6.73437976837158203 13.3437995910644531 20.4580001831054688 0.25627899169921875 0.501868009567260742 0.826104998588562012
5.25 12.7812004089355469 24.7390003204345703 -0.821078002452850342 0.569945991039276123 0.0315093994140625
5.89062023162841797 8.59375 57.4259986877441406 0.439595997333526611 -0.0378205999732017517 0.897399008274078369
5.71875 8.84375 57.4589996337890625 0.377519994974136353 0.145963996648788452 0.914425015449523926
6.04687976837158203 9.75 55.3610000610351562 0.0293636005371809006 -0.00436063995584845543 -0.999558985233306885
6.70312023162841797 10.5312004089355469 52.6879997253417969 0.0747983977198600769 -0.989596009254455566 0.122901000082492828
6.375 10.6562004089355469 53.2449989318847656 -0.266604989767074585 -0.959061026573181152 0.0955229029059410095
4.92187976837158203 10.0625 57.4760017395019531 0.126601994037628174 0.197127997875213623 0.972168982028961182
7.84375 11.9375 47.9339981079101562 0.97973400354385376 -0.108484998345375061 0.168383002281188965
5.39062023162841797 10.7187995910644531 55.4589996337890625 -0.0802009999752044678 0.0719050019979476929 -0.994181990623474121
1.95311999320983887 10.0625 5.80100011825561523 -0.895210981369018555 0.440887004137039185 0.0649368986487388611
1.78125 9.28125 7.32600021362304688 -0.712761998176574707 -0.105469003319740295 0.69343101978302002
2.09375 8.75 7.32499980926513672 -0.582518994808197021 -0.464327007532119751 0.667137980461120605
3.45311999320983887 7.8125 5.4720001220703125 -0.435615986585617065 -0.899342000484466553 0.0377058982849121094
7.5 4.5625 0.372999995946884155 -0.688651978969573975 -0.195967003703117371 -0.698108017444610596
8.21875 12.5312004089355469 46.2120018005371094 0.684921026229858398 -0.290628999471664429 0.66814500093460083
5.20312023162841797 10.9687995910644531 55.5099983215332031 -0.465936005115509033 0.061203300952911377 -0.882699012756347656
5.29687976837158203 11.75 54.1479988098144531 -0.464958012104034424 -0.640272974967956543 0.611445009708404541
8.32812023162841797 13.7187995910644531 44.1800003051757812 0.150123998522758484 -0.0322926007211208344 -0.988139986991882324
6.54687976837158203 12.9062004089355469 49.4920005798339844 0.155659005045890808 0.909411013126373291 0.385672003030776978
5.8125 12.7812004089355469 51.3940010070800781 -0.500304996967315674 0.864825010299682617 0.0420956015586853027
7.84375 14.4375 44.2120018005371094 0.00864757969975471497 0.00472221989184617996 -0.999951004981994629
10.5312004089355469 16.5312004089355469 34.8670005798339844 0.429778993129730225 -0.253917992115020752 0.866496026515960693
5.07812023162841797 13.0312004089355469 24.8040008544921875 -0.789653003215789795 0.594658017158508301 0.151097998023033142
7 15.6875 44.2949981689453125 -0.691256999969482422 0.275063991546630859 -0.6682090163230896
5.375 13.2187995910644531 23.8360004425048828 -0.775840997695922852 0.630025029182434082 0.0337538011372089386
6.4375 13.875 20.3600006103515625 0.44153401255607605 0.775775015354156494 0.450798988342285156
13.4218997955322266 21.6875 20.4890003204345703 -0.509572982788085938 -0.272247999906539917 -0.816220998764038086
13.2343997955322266 21.9375 20.5039997100830078 -0.326337993144989014 -0.826089024543762207 -0.459434986114501953
14.9218997955322266 23.0625 14.9790000915527344 0.870119988918304443 -0.334024012088775635 0.362379014492034912
14.6562004089355469 23.2812004089355469 15.2250003814697266 0.892107009887695312 -0.296918004751205444 0.340566009283065796
15.9531002044677734 24.125 10.9790000915527344 0.962530970573425293 0.246383994817733765 0.113266997039318085
10.6562004089355469 21 27.8659992218017578 -0.541765987873077393 -0.789921998977661133 0.287250012159347534
16.1093997955322266 24.5937995910644531 9.86400032043457031 0.899972021579742432 0.270289987325668335 0.34204399585723877
16.2812004089355469 25.0937995910644531 8.74899959564208984 0.572462975978851318 0.603994011878967285 0.554507017135620117
15.5468997955322266 24.9687995910644531 10.6020002365112305 0.834698021411895752 0.491441011428833008 0.248526006937026978
2.21875 11.25 4.53800010681152344 -0.979529023170471191 0.0818193033337593079 0.183926001191139221
2.39061999320983887 10.9687995910644531 4.48999977111816406 -0.931267023086547852 0.347339987754821777 0.109984003007411957
1.98438000679016113 9.65625 7.32600021362304688 -0.819963991641998291 0.308286011219024658 0.482306003570556641
2.375 8.84375 7.57200002670288086 -0.505155026912689209 -0.548539996147155762 0.6662750244140625
2.8125 8.375 7.1939997673034668 -0.299645006656646729 -0.628974020481109619 0.717360019683837891
3.76561999320983887 7.53125 6.16099977493286133 -0.433737009763717651 -0.886336028575897217 -0.162112995982170105
6.45312023162841797 5.5625 2.52099990844726562 0.255344003438949585 -0.958643972873687744 0.1256989985704422
7 5.15625 1.78299999237060547 -0.0884177014231681824 -0.956960976123809814 0.276421010494232178
7.79687976837158203 4.90625 0.226000994443893433 0.0203539002686738968 -0.408010005950927734 -0.912750005722045898
