ply
format ascii 1.0
element vertex 107
property float x
property float y
property float z
end_header
416.529998779296875 68.75 5.13000011444091797
416.850006103515625 68.589996337890625 9.77999973297119141
416.579986572265625 68.69000244140625 6.75
416.67999267578125 68.6800003051757812 8.38000011444091797
417.07000732421875 69.1800003051757812 13.3500003814697266
417.6400146484375 72.220001220703125 15.5500001907348633
415.709991455078125 70.7399978637695312 15.7299995422363281
415.94000244140625 68.7399978637695312 16.0699996948242188
416.1199951171875 69.4000015258789062 16.0300006866455078
417.040008544921875 74.5 15.3100004196166992
416.92999267578125 69.7699966430664062 13.1099996566772461
416.779998779296875 70.55999755859375 15.8900003433227539
415.709991455078125 70.8300018310546875 15.7799997329711914
416.8599853515625 71.220001220703125 15.8400001525878906
417.339996337890625 73.7300033569335938 15.4099998474121094
417.329986572265625 66.9000015258789062 10.3000001907348633
416.75 68.55999755859375 4.98999977111816406
416.149993896484375 68.8300018310546875 5.88000011444091797
416.839996337890625 68.6200027465820312 4.40999984741210938
416.920013427734375 68.6699981689453125 8.96000003814697266
416.8599853515625 68.6399993896484375 5.94999980926513672
417.010009765625 68.6299972534179688 10.5399999618530273
416.209991455078125 68.910003662109375 16.1200008392333984
417.30999755859375 66.839996337890625 10.3500003814697266
416.959991455078125 68.8000030517578125 12.4499998092651367
416.739990234375 68.6699981689453125 9.39999961853027344
416.850006103515625 68.7399978637695312 10.9200000762939453
416.6300048828125 68.6200027465820312 7.80000019073486328
416.519989013671875 68.6200027465820312 6.17000007629394531
416.459991455078125 68.55999755859375 4.61999988555908203
417.260009765625 73.75 15.4099998474121094
417.04998779296875 74.3700027465820312 15.2899999618530273
416.540008544921875 72.2300033569335938 15.7399997711181641
416.739990234375 70.9000015258789062 15.6899995803833008
416.579986572265625 71.5199966430664062 15.7299995422363281
416.470001220703125 68.5699996948242188 5.05999994277954102
416.730010986328125 71.1299972534179688 12.9700002670288086
417.260009765625 73.9800033569335938 15.4200000762939453
416.410003662109375 72.9899978637695312 15.6099996566772461
416.589996337890625 72.3499984741210938 15.619999885559082
416.82000732421875 70.4000015258789062 15.9099998474121094
416.040008544921875 68.9899978637695312 16.0799999237060547
417.19000244140625 74.5800018310546875 15.2899999618530273
416.3699951171875 73.0100021362304688 15.6000003814697266
416.769989013671875 71.0999984741210938 15.8299999237060547
417.1099853515625 74.0199966430664062 15.4099998474121094
417.6400146484375 72.029998779296875 15.6000003814697266
416.089996337890625 68.9800033569335938 16.1100006103515625
417.1400146484375 68.8499984741210938 11.130000114440918
416.8699951171875 68.839996337890625 6.25
417.220001220703125 68.8600006103515625 12.6899995803833008
416.80999755859375 68.839996337890625 4.73000001907348633
416.959991455078125 68.8499984741210938 7.90999984741210938
416.95001220703125 69.9800033569335938 13.0799999237060547
416.8800048828125 70.69000244140625 15.8000001907348633
417.079986572265625 74.660003662109375 15.2700004577636719
416.1300048828125 69.0999984741210938 16.0300006866455078
416.329986572265625 73.19000244140625 15.5699996948242188
416.510009765625 68.720001220703125 4.96000003814697266
415.989990234375 68.970001220703125 16.2000007629394531
416.260009765625 72.910003662109375 15.4899997711181641
416.149993896484375 69.5100021362304688 15.9600000381469727
416.769989013671875 70.8700027465820312 15.8599996566772461
415.8800048828125 70.0100021362304688 15.8199996948242188
416.980010986328125 74.5400009155273438 15.3999996185302734
417.32000732421875 73.0500030517578125 15.4600000381469727
415.589996337890625 71.4800033569335938 15.6400003433227539
416.420013427734375 72.2300033569335938 15.5699996948242188
416.95001220703125 68.8600006103515625 11.9600000381469727
416.8699951171875 68.5100021362304688 6.44999980926513672
416.920013427734375 68.6399993896484375 8.42000007629394531
416.910003662109375 68.7399978637695312 10.1700000762939453
416.19000244140625 68.9800033569335938 16.1000003814697266
416.420013427734375 68.6200027465820312 4.44000005722045898
416.44000244140625 68.6299972534179688 5.75
417.20001220703125 68.7699966430664062 12.25
417.1400146484375 68.660003662109375 9.85999965667724609
417.160003662109375 68.75 10.9399995803833008
415.95001220703125 69.19000244140625 16.0300006866455078
416.45001220703125 73.2300033569335938 15.5299997329711914
416.079986572265625 69.0500030517578125 16.2299995422363281
415.739990234375 70.25 15.8299999237060547
415.920013427734375 69.6299972534179688 15.8900003433227539
417.459991455078125 72.5800018310546875 15.4899997711181641
417.57000732421875 72.0100021362304688 15.6899995803833008
417.1300048828125 73.779998779296875 15.4200000762939453
417.269989013671875 73.220001220703125 15.5200004577636719
417.029998779296875 74.3000030517578125 15.2600002288818359
416.470001220703125 71.6399993896484375 12.7700004577636719
416.850006103515625 69.9199981689453125 13.0699996948242188
416.6099853515625 71.0699996948242188 12.9499998092651367
417 69.3199996948242188 13.1400003433227539
416.75 70.44000244140625 12.9700002670288086
415.589996337890625 71.75 15.5600004196166992
415.829986572265625 70.7099990844726562 15.8000001907348633
416.6300048828125 68.6100006103515625 7.13000011444091797
416.6300048828125 68.470001220703125 5.30000019073486328
416.670013427734375 68.6500015258789062 9.13000011444091797
417.290008544921875 68.8799972534179688 12.1099996566772461
416.089996337890625 68.9599990844726562 16.1900005340576172
415.959991455078125 69.6399993896484375 15.9300003051757812
417.17999267578125 68.839996337890625 12.5
417.170013427734375 68.75 11.3299999237060547
416.6300048828125 68.4499969482421875 5.84999990463256836
416.589996337890625 68.5500030517578125 7.01000022888183594
416.660003662109375 68.3899993896484375 4.59999990463256836
416.589996337890625 68.55999755859375 8.31000041961669922
