ply
format ascii 1.0
element vertex 204
property float x
property float y
property float z
end_header
71.1800003051757812 103.449996948242188 30.8299999237060547
72.0500030517578125 103.199996948242188 32.0099983215332031
71.5100021362304688 104.680000305175781 32.5499992370605469
71.3600006103515625 104.669998168945312 27.8700008392333984
71.44000244140625 104.699996948242188 31.0200004577636719
71.3499984741210938 104.589996337890625 21.1000003814697266
72 104.550003051757812 33.1599998474121094
71.339996337890625 104.610000610351562 22.8700008392333984
71.4800033569335938 104.69000244140625 29.2299995422363281
71.5800018310546875 103.959999084472656 32.7299995422363281
71.0500030517578125 104.069999694824219 30.75
71.3899993896484375 105.449996948242188 30.8799991607666016
71.5999984741210938 105.389999389648438 32.0900001525878906
71.94000244140625 105.349998474121094 32.8600006103515625
72.05999755859375 105.959999084472656 31.9300003051757812
70.339996337890625 103.629997253417969 33
71.589996337890625 103.339996337890625 31.9400005340576172
72.220001220703125 103.160003662109375 31.9200000762939453
71.410003662109375 104.139999389648438 30.8500003814697266
70.9800033569335938 104.25 29.2900009155273438
71.8000030517578125 104.010002136230469 32.9099998474121094
70.0500030517578125 104.470001220703125 33.3300018310546875
71.8700027465820312 104.010002136230469 32.0200004577636719
71.6500015258789062 104.779998779296875 32.9399986267089844
71.7300033569335938 104.800003051757812 32.1300010681152344
71.7300033569335938 105.419998168945312 32.9300003051757812
71.3600006103515625 105.5 30.8700008392333984
71.7099990844726562 103.769996643066406 32.1199989318847656
71.8700027465820312 103.75 32.9000015258789062
71.6100006103515625 104.419998168945312 25.2000007629394531
71.6200027465820312 104.459999084472656 28.2099990844726562
71.660003662109375 104.370002746582031 22.3799991607666016
71.7900009155273438 104.449996948242188 32.029998779296875
71.80999755859375 104.410003662109375 29.3099994659423828
71.7399978637695312 105.050003051757812 32.0699996948242188
71.4199981689453125 104.540000915527344 33.1199989318847656
70.2600021362304688 105.400001525878906 33.0099983215332031
71.1399993896484375 105.870002746582031 31.0300006866455078
72.6699981689453125 105.510002136230469 32.8400001525878906
71.75 103.540000915527344 32.0400009155273438
71.589996337890625 104.260002136230469 24.6700000762939453
71.75 104.139999389648438 32.029998779296875
71.69000244140625 105.680000305175781 32.1599998474121094
71.160003662109375 103.180000305175781 30.8700008392333984
72.0500030517578125 103.379997253417969 32.0999984741210938
71.5 104.010002136230469 30.9300003051757812
70.1100006103515625 103.680000305175781 32.9500007629394531
71.7300033569335938 104.050003051757812 32.0900001525878906
71.30999755859375 104.730003356933594 27.5499992370605469
71.4000015258789062 104.720001220703125 29.0499992370605469
71.3600006103515625 104.69000244140625 30.8700008392333984
71.19000244140625 104.610000610351562 33.0800018310546875
71.589996337890625 104.699996948242188 32.029998779296875
71.1800003051757812 105.269996643066406 30.8099994659423828
71.6699981689453125 105.330001831054688 32.8699989318847656
71.9300003051757812 103.25 31.9500007629394531
71.5100021362304688 103.110000610351562 30.8700008392333984
71.9300003051757812 104.019996643066406 32.9099998474121094
70.8300018310546875 103.769996643066406 33.0400009155273438
71.589996337890625 103.910003662109375 30.9699993133544922
70.339996337890625 103.639999389648438 33.0099983215332031
72.0199966430664062 104.019996643066406 31.9099998474121094
71.7300033569335938 104.660003662109375 32.8300018310546875
71.410003662109375 104.55999755859375 30.8799991607666016
71.1500015258789062 104.540000915527344 33.2900009155273438
72.5400009155273438 105.510002136230469 32.8499984741210938
71.5999984741210938 105.209999084472656 30.8899993896484375
72.0100021362304688 105.360000610351562 32.9099998474121094
71.2900009155273438 105.860000610351562 30.9300003051757812
69.94000244140625 105.550003051757812 33
71.75 105.980003356933594 31.9899997711181641
72.1699981689453125 103.150001525878906 31.8799991607666016
71.3199996948242188 103.519996643066406 30.8799991607666016
72.339996337890625 103.720001220703125 32.9300003051757812
71.7600021362304688 103.589996337890625 32.9300003051757812
71.7900009155273438 104.220001220703125 32.8699989318847656
71.6399993896484375 104.220001220703125 32.0999984741210938
71.660003662109375 104.230003356933594 29.2000007629394531
72.4499969482421875 104.379997253417969 33.1300010681152344
71.7300033569335938 104.379997253417969 20.8400001525878906
71.69000244140625 104.94000244140625 32.7299995422363281
70 104.529998779296875 33.1899986267089844
71.3499984741210938 104.879997253417969 30.9699993133544922
71.089996337890625 105.400001525878906 33.0200004577636719
71.2900009155273438 105.489997863769531 30.9699993133544922
72.0800018310546875 105.660003662109375 32.029998779296875
71.6699981689453125 105.55999755859375 32.8100013732910156
72.1200027465820312 103.160003662109375 31.7999992370605469
71.94000244140625 103.779998779296875 31.8999996185302734
71.6800003051757812 103.75 32.9199981689453125
71.4199981689453125 103.639999389648438 30.8199996948242188
71.7699966430664062 104.430000305175781 21.8999996185302734
71.7300033569335938 104.5 30.3199996948242188
71.7699966430664062 104.529998779296875 31.9300003051757812
71.6999969482421875 104.400001525878906 23.1499996185302734
71.6999969482421875 104.459999084472656 27.4400005340576172
71.6999969482421875 104.470001220703125 25.9899997711181641
71.6200027465820312 104.510002136230469 32.9000015258789062
71.6999969482421875 105.220001220703125 32.1500015258789062
71.19000244140625 105.680000305175781 30.9699993133544922
71.7600021362304688 105.839996337890625 32.1199989318847656
70.3700027465820312 105.360000610351562 33.0200004577636719
71.4899978637695312 105.05999755859375 30.8899993896484375
71.3499984741210938 104.650001525878906 27.2399997711181641
71.5 105.010002136230469 32.7999992370605469
71.339996337890625 104.459999084472656 30.9300003051757812
71.589996337890625 105.510002136230469 32.279998779296875
71.3899993896484375 104.489997863769531 33.2400016784667969
71.75 106 31.8299999237060547
71.6800003051757812 105.75 30.8999996185302734
71.0400009155273438 103.260002136230469 30.8899993896484375
71.8300018310546875 103.55999755859375 32.0699996948242188
71.9599990844726562 104.069999694824219 31.7800006866455078
71.8899993896484375 103.819999694824219 32.9000015258789062
72.0699996948242188 104.459999084472656 33.2000007629394531
70.3799972534179688 104.580001831054688 33.2299995422363281
70.6200027465820312 103.620002746582031 33.0099983215332031
71.220001220703125 105.870002746582031 30.9099998474121094
71.5199966430664062 104.819999694824219 32.8199996948242188
71.5500030517578125 104.819999694824219 30.8999996185302734
71.8199996948242188 105.930000305175781 32.0200004577636719
71.4000015258789062 104.30999755859375 30.8700008392333984
71.4499969482421875 104.330001831054688 29.2999992370605469
71.2399978637695312 103.760002136230469 30.8700008392333984
71.1399993896484375 103.220001220703125 30.9200000762939453
71.6399993896484375 105.449996948242188 32.8800010681152344
71.4000015258789062 104.360000610351562 33.1699981689453125
71.7399978637695312 103.489997863769531 32.0699996948242188
71.7300033569335938 103.480003356933594 32.9000015258789062
71.8499984741210938 103.970001220703125 31.8199996948242188
71.9800033569335938 104.550003051757812 33.1399993896484375
71.8300018310546875 104 32.8400001525878906
72.2399978637695312 103.660003662109375 32.8899993896484375
72.0699996948242188 103.120002746582031 31.8999996185302734
70.0100021362304688 103.569999694824219 32.970001220703125
70.4800033569335938 105.410003662109375 32.9599990844726562
71.3199996948242188 105.680000305175781 30.8999996185302734
71.7300033569335938 104.529998779296875 32.8499984741210938
71.9199981689453125 105.180000305175781 32.8400001525878906
71.6399993896484375 104.239997863769531 31.8400001525878906
71.4499969482421875 103.339996337890625 30.8799991607666016
72.1100006103515625 106.029998779296875 31.9899997711181641
71.7099990844726562 104.330001831054688 27.6000003814697266
71.970001220703125 105.449996948242188 31.8500003814697266
71.6500015258789062 104.180000305175781 29.9699993133544922
71.6699981689453125 104.360000610351562 25.3999996185302734
71.6999969482421875 104.300003051757812 21.3500003814697266
71.6999969482421875 104.300003051757812 23.5400009155273438
72.029998779296875 103.370002746582031 31.9699993133544922
72.5999984741210938 105.449996948242188 32.8100013732910156
72.1999969482421875 103.94000244140625 31.9500007629394531
70.279998779296875 104.580001831054688 33.25
70.9300003051757812 104.680000305175781 33.3199996948242188
71.1500015258789062 103.370002746582031 30.8500003814697266
71.69000244140625 104.029998779296875 31.8400001525878906
71.5400009155273438 104.339996337890625 30.9400005340576172
71.5100021362304688 104.900001525878906 32.7999992370605469
71.339996337890625 104.699996948242188 28.1599998474121094
71.410003662109375 104.839996337890625 30.8199996948242188
71.529998779296875 104.69000244140625 32.0800018310546875
71.3300018310546875 105.459999084472656 32.9000015258789062
71.25 105.489997863769531 30.8899993896484375
71.80999755859375 103.739997863769531 32.9300003051757812
71.8199996948242188 103.410003662109375 31.8600006103515625
71.6100006103515625 104.330001831054688 32.9099998474121094
72.2399978637695312 104.680000305175781 33.1300010681152344
71.8000030517578125 106.099998474121094 31.7600002288818359
72.4599990844726562 105.400001525878906 32.8800010681152344
71.4899978637695312 105.230003356933594 32.7999992370605469
71.779998779296875 104.669998168945312 29.5599994659423828
71.5999984741210938 105.220001220703125 30.9099998474121094
71.779998779296875 104.120002746582031 32.7900009155273438
71.9599990844726562 105.580001831054688 32.9099998474121094
71.4800033569335938 105.790000915527344 30.8799991607666016
71.6100006103515625 104.699996948242188 32.8600006103515625
72.1999969482421875 104.470001220703125 33.1899986267089844
71.8899993896484375 103.55999755859375 32.9799995422363281
70.1299972534179688 103.629997253417969 33.0099983215332031
70.4000015258789062 104.510002136230469 33.3499984741210938
70.80999755859375 105.360000610351562 32.9399986267089844
71.1500015258789062 104.269996643066406 30.8500003814697266
71.220001220703125 104.260002136230469 29.3299999237060547
71.1999969482421875 103.680000305175781 33
71.4300003051757812 103.110000610351562 30.8600006103515625
71.3199996948242188 103.699996948242188 30.8299999237060547
69.6999969482421875 103.55999755859375 32.970001220703125
70.0699996948242188 104.639999389648438 33.2900009155273438
71.0999984741210938 103.319999694824219 30.9400005340576172
70.8600006103515625 104.430000305175781 33.2099990844726562
71.4899978637695312 104.370002746582031 22.7700004577636719
71.4800033569335938 104.389999389648438 20.8899993896484375
71.9300003051757812 103.589996337890625 32
71.5199966430664062 104.419998168945312 24.7399997711181641
71.8300018310546875 103.910003662109375 32.9000015258789062
71.6699981689453125 104.19000244140625 27.6399993896484375
71.660003662109375 104.55999755859375 32.7900009155273438
71.3600006103515625 105.709999084472656 30.8999996185302734
71.589996337890625 104.480003356933594 26.7700004577636719
71.5100021362304688 105.19000244140625 32.7900009155273438
71.660003662109375 104.55999755859375 30.6100006103515625
71.7900009155273438 104.110000610351562 32.0900001525878906
71.6200027465820312 104.410003662109375 29.1100006103515625
72.0800018310546875 105.739997863769531 31.8500003814697266
72.1699981689453125 105.470001220703125 32.9399986267089844
