ply
format ascii 1.0
element vertex 123
property float x
property float y
property float z
end_header
444.149993896484375 153.839996337890625 6.92000007629394531
443.730010986328125 153.860000610351562 13.1400003433227539
444.010009765625 153.830001831054688 10.7299995422363281
444.29998779296875 153.720001220703125 13.2700004577636719
443.649993896484375 154.660003662109375 7.17000007629394531
444.040008544921875 155.350006103515625 7.28999996185302734
443.6400146484375 156.160003662109375 7.34999990463256836
443.8699951171875 155.910003662109375 7.34999990463256836
443.80999755859375 155.17999267578125 7.1399998664855957
444.279998779296875 153.860000610351562 13.1899995803833008
443.82000732421875 153.8699951171875 4.94999980926513672
443.709991455078125 153.970001220703125 13.1099996566772461
444.079986572265625 153.300003051757812 13.1599998474121094
444.30999755859375 153.960006713867188 13.1000003814697266
443.79998779296875 154.100006103515625 13.2200002670288086
443.489990234375 154.94000244140625 7.32999992370605469
443.70001220703125 155.550003051757812 7.1100001335144043
443.920013427734375 156 7.32999992370605469
444.089996337890625 153.69000244140625 6.34999990463256836
444.05999755859375 153.75 12.25
444.1099853515625 153.699996948242188 10.8100004196166992
444.44000244140625 153.639999389648438 13.0100002288818359
444.100006103515625 153.720001220703125 9.31000041961669922
443.82000732421875 153.800003051757812 13.3000001907348633
444.019989013671875 154.94000244140625 7.30999994277954102
443.829986572265625 155.720001220703125 7.42000007629394531
444.339996337890625 153.509994506835938 13.2700004577636719
443.80999755859375 153.339996337890625 13.0699996948242188
443.920013427734375 154.020004272460938 13.1800003051757812
444.1199951171875 154.57000732421875 7.23999977111816406
443.519989013671875 155.05999755859375 7.30999994277954102
444.209991455078125 155.25 7.25
443.420013427734375 155.800003051757812 7.38000011444091797
443.55999755859375 156.089996337890625 7.3600001335144043
443.480010986328125 155.42999267578125 7.23000001907348633
444.089996337890625 155.57000732421875 7.30999994277954102
444.079986572265625 154.960006713867188 7.17999982833862305
443.529998779296875 154.80999755859375 7.17999982833862305
444.19000244140625 153.57000732421875 13.2299995422363281
444.1199951171875 153.6199951171875 6.75
444.269989013671875 153.699996948242188 4.8600001335144043
444.079986572265625 153.410003662109375 13.2100000381469727
443.92999267578125 153.990005493164062 13.1800003051757812
443.5 155.240005493164062 7.3600001335144043
444.1099853515625 155.350006103515625 7.19999980926513672
443.829986572265625 155.990005493164062 7.32000017166137695
444.1300048828125 153.55999755859375 10.3199996948242188
444.149993896484375 153.55999755859375 11.8999996185302734
444.269989013671875 153.69000244140625 4.6399998664855957
444.07000732421875 153.550003051757812 8.78999996185302734
443.779998779296875 154.839996337890625 7.17999982833862305
443.959991455078125 155.67999267578125 7.28000020980834961
444.170013427734375 153.589996337890625 7.05999994277954102
444.230010986328125 153.740005493164062 4.65000009536743164
444.1300048828125 153.860000610351562 11.6099996566772461
444.239990234375 153.910003662109375 6.26999998092651367
444.19000244140625 153.8800048828125 10.2399997711181641
443.510009765625 153.830001831054688 6.82999992370605469
443.769989013671875 154.779998779296875 7.32000017166137695
443.899993896484375 155.350006103515625 7.09999990463256836
444.160003662109375 153.949996948242188 13.1599998474121094
443.75 154.990005493164062 7.26000022888183594
443.899993896484375 155.55999755859375 7.21999979019165039
444.1300048828125 153.639999389648438 8.35999965667724609
444.089996337890625 153.729995727539062 6.34999990463256836
444.170013427734375 153.669998168945312 11.0600004196166992
443.980010986328125 153.350006103515625 4.90000009536743164
444.279998779296875 154.169998168945312 13.0600004196166992
444.170013427734375 153.589996337890625 13.2299995422363281
443.92999267578125 153.69000244140625 6.78000020980834961
443.95001220703125 153.789993286132812 4.8600001335144043
444.149993896484375 154.779998779296875 8.21000003814697266
443.80999755859375 155.550003051757812 7.03000020980834961
443.660003662109375 154.960006713867188 7.17999982833862305
443.980010986328125 156.160003662109375 7.26000022888183594
443.8599853515625 154.05999755859375 13.2200002670288086
443.75 153.470001220703125 13.1099996566772461
443.760009765625 155.289993286132812 7.28000020980834961
443.8800048828125 155.910003662109375 7.32999992370605469
443.600006103515625 154.789993286132812 7.11999988555908203
444.04998779296875 153.639999389648438 11
444.079986572265625 153.649993896484375 7.03999996185302734
444.079986572265625 153.67999267578125 4.8899998664855957
444.07000732421875 153.649993896484375 9.06999969482421875
444.170013427734375 154.149993896484375 13.2399997711181641
444 153.55999755859375 13.1999998092651367
443.899993896484375 156.199996948242188 7.30000019073486328
444.709991455078125 153.470001220703125 4.82999992370605469
444.07000732421875 155.509994506835938 7.26000022888183594
444.20001220703125 154.07000732421875 13.0699996948242188
443.8800048828125 153.740005493164062 8.02000045776367188
443.790008544921875 153.710006713867188 10.7399997711181641
443.920013427734375 153.720001220703125 6.67999982833862305
443.82000732421875 153.710006713867188 9.35999965667724609
444 153.6300048828125 5.17000007629394531
443.730010986328125 153.600006103515625 13.1999998092651367
444.1300048828125 155 7.21000003814697266
444.010009765625 155.57000732421875 7.23999977111816406
443.829986572265625 156.220001220703125 7.23999977111816406
443.970001220703125 153.800003051757812 10.6099996566772461
443.75 153.639999389648438 4.94000005722045898
443.839996337890625 153.830001831054688 8.35000038146972656
443.42999267578125 155.42999267578125 7.36999988555908203
443.8900146484375 153.490005493164062 6.98000001907348633
443.55999755859375 154.800003051757812 7.17000007629394531
444.019989013671875 153.860000610351562 13.2100000381469727
443.959991455078125 156.020004272460938 7.28000020980834961
444.089996337890625 155.509994506835938 7.26999998092651367
443.54998779296875 155.089996337890625 7.30999994277954102
444.089996337890625 153.399993896484375 4.94000005722045898
444.30999755859375 153.580001831054688 13.130000114440918
443.649993896484375 153.720001220703125 13.1800003051757812
444.1400146484375 154.19000244140625 13.1000003814697266
444.5 153.92999267578125 4.90000009536743164
444.1099853515625 155.649993896484375 7.36999988555908203
443.959991455078125 153.600006103515625 6.76000022888183594
443.670013427734375 154.729995727539062 7.13000011444091797
443.899993896484375 153.580001831054688 4.86999988555908203
443.540008544921875 155.300003051757812 7.28999996185302734
443.959991455078125 153.699996948242188 8.61999988555908203
444.010009765625 153.649993896484375 10.5100002288818359
444.019989013671875 153.979995727539062 13.2299995422363281
444.1099853515625 153.470001220703125 13.0900001525878906
