ply
format ascii 1.0
element vertex 249
property float x
property float y
property float z
end_header
176.899993896484375 106.620002746582031 20.9500007629394531
177.25 106.089996337890625 26.5599994659423828
177.1199951171875 106.55999755859375 17.2800006866455078
177.029998779296875 106.080001831054688 21.1000003814697266
176.889999389648438 105.519996643066406 26.5499992370605469
177.259994506835938 105.370002746582031 21.0900001525878906
177.919998168945312 106.370002746582031 17.1499996185302734
177.509994506835938 106.480003356933594 21.1900005340576172
177.1199951171875 106.629997253417969 26.5900001525878906
177.55999755859375 107.180000305175781 26.7900009155273438
177.029998779296875 107.300003051757812 26.6000003814697266
177.449996948242188 107.139999389648438 21.0799999237060547
177.229995727539062 107.959999084472656 24.1700000762939453
177.279998779296875 108.010002136230469 25.7199993133544922
177.19000244140625 107.989997863769531 22.7999992370605469
177.229995727539062 107.930000305175781 21.1299991607666016
177.479995727539062 107.930000305175781 26.7700004577636719
176.889999389648438 105.790000915527344 26.5200004577636719
177.419998168945312 105.699996948242188 26.5599994659423828
177.80999755859375 105.629997253417969 21.0499992370605469
177.240005493164062 105.800003051757812 21.1299991607666016
177.710006713867188 106.370002746582031 26.6900005340576172
177.539993286132812 106.459999084472656 21.0900001525878906
176.919998168945312 106.639999389648438 17.3899993896484375
176.910003662109375 106.629997253417969 21.1100006103515625
177.1199951171875 106.510002136230469 26.6200008392333984
177.149993896484375 107.279998779296875 21.1100006103515625
177.710006713867188 107.139999389648438 21.1700000762939453
177.32000732421875 107.160003662109375 26.6900005340576172
176.979995727539062 107.839996337890625 26.6299991607666016
177.330001831054688 107.779998779296875 24.5499992370605469
177.300003051757812 107.849998474121094 21.1599998474121094
177.860000610351562 107.660003662109375 24.6299991607666016
177.520004272460938 107.709999084472656 26.7099990844726562
176.830001831054688 105.650001525878906 26.6700000762939453
177.389999389648438 105.459999084472656 26.6599998474121094
177.289993286132812 105.419998168945312 21.0799999237060547
177.460006713867188 106.139999389648438 26.5900001525878906
177.389999389648438 106.080001831054688 21.1299991607666016
176.8800048828125 106.300003051757812 26.6700000762939453
177.3699951171875 106.830001831054688 21.1299991607666016
177.42999267578125 106.860000610351562 26.6200008392333984
176.910003662109375 107.019996643066406 26.7800006866455078
177.419998168945312 107.519996643066406 26.6900005340576172
177.800003051757812 107.44000244140625 24.5799999237060547
177.199996948242188 107.550003051757812 24.6800003051757812
177.3800048828125 107.449996948242188 21.1299991607666016
178 107.910003662109375 22.9500007629394531
177.360000610351562 108.129997253417969 26.6599998474121094
176.960006713867188 105.919998168945312 26.6000003814697266
177.410003662109375 105.239997863769531 21.0499992370605469
177.300003051757812 106.580001831054688 21.0400009155273438
177.6199951171875 106.459999084472656 26.5699996948242188
177.460006713867188 107.19000244140625 21.0499992370605469
177.6199951171875 107.110000610351562 26.6000003814697266
177.479995727539062 107.720001220703125 24.6000003814697266
177.830001831054688 107.669998168945312 24.0200004577636719
177.580001831054688 107.669998168945312 26.6399993896484375
177.3699951171875 107.779998779296875 21.0900001525878906
177.539993286132812 108.389999389648438 23.0499992370605469
177.220001220703125 108.19000244140625 14
176.960006713867188 105.300003051757812 21.0799999237060547
176.949996948242188 105.910003662109375 26.4899997711181641
177.300003051757812 106.050003051757812 21.0900001525878906
176.839996337890625 106.639999389648438 17.2800006866455078
177.169998168945312 106.660003662109375 21.0900001525878906
177.009994506835938 107.339996337890625 20.8600006103515625
177.600006103515625 107.449996948242188 21.1700000762939453
177.17999267578125 107.30999755859375 26.6800003051757812
177.44000244140625 107.360000610351562 24.5499992370605469
177.220001220703125 108.19000244140625 17.1100006103515625
177.350006103515625 108.129997253417969 21.3299999237060547
177.259994506835938 108.160003662109375 20.0799999237060547
177.220001220703125 108.129997253417969 18.6800003051757812
177.32000732421875 108.099998474121094 25.9200000762939453
177.17999267578125 108.19000244140625 15.5100002288818359
177.339996337890625 108.089996337890625 24.2900009155273438
177.889999389648438 109.480003356933594 20.8899993896484375
177.550003051757812 105.529998779296875 26.6599998474121094
177.399993896484375 105.44000244140625 21.1000003814697266
176.979995727539062 105.370002746582031 26.6100006103515625
177.600006103515625 106.110000610351562 21.1700000762939453
177.229995727539062 106.129997253417969 26.5599994659423828
177.039993286132812 106 21.0799999237060547
177.3800048828125 106.730003356933594 26.5400009155273438
177.75 106.739997863769531 21.1599998474121094
177.160003662109375 106.629997253417969 21.1499996185302734
177.039993286132812 107.30999755859375 26.5900001525878906
177.57000732421875 107.419998168945312 26.6499996185302734
177.3800048828125 107.370002746582031 24.5699996948242188
177.419998168945312 107.300003051757812 21.0799999237060547
177.490005493164062 108.099998474121094 21.1700000762939453
177.1300048828125 108.050003051757812 26.7299995422363281
177.360000610351562 108.089996337890625 25.4500007629394531
177.229995727539062 108.050003051757812 22.6900005340576172
176.990005493164062 107.94000244140625 21.0200004577636719
177.67999267578125 105.660003662109375 21.0900001525878906
177.19000244140625 105.5 26.6399993896484375
177.1199951171875 105.519996643066406 21.1299991607666016
177.110000610351562 106.25 21.1399993896484375
177.740005493164062 106.44000244140625 21.1100006103515625
177.19000244140625 106.239997863769531 26.6700000762939453
177.07000732421875 107.069999694824219 21.1100006103515625
177.740005493164062 107.160003662109375 26.7000007629394531
177.669998168945312 107.220001220703125 21.0900001525878906
177.17999267578125 106.989997863769531 26.7099990844726562
177.220001220703125 107.69000244140625 26.6599998474121094
177.740005493164062 107.910003662109375 21.1399993896484375
177.520004272460938 107.819999694824219 24.5599994659423828
178.520004272460938 109.430000305175781 20.8700008392333984
177.600006103515625 108.220001220703125 13.8199996948242188
177.25 105.550003051757812 21.1200008392333984
177.460006713867188 105.660003662109375 26.5200004577636719
176.830001831054688 105.519996643066406 26.7600002288818359
177.220001220703125 106.30999755859375 26.6499996185302734
176.960006713867188 106.209999084472656 21.1599998474121094
177.539993286132812 107.029998779296875 21.0799999237060547
177.720001220703125 107.150001525878906 26.5699996948242188
177.139999389648438 106.970001220703125 26.7399997711181641
177.610000610351562 107.720001220703125 26.6200008392333984
177.30999755859375 107.55999755859375 21.0799999237060547
177.460006713867188 107.660003662109375 24.6000003814697266
177.1199951171875 108.239997863769531 25.7800006866455078
177.460006713867188 108.260002136230469 21.7199993133544922
177.539993286132812 108.339996337890625 23.5100002288818359
177.6199951171875 108.239997863769531 17.1299991607666016
177.55999755859375 108.25 18.6299991607666016
177.589996337890625 108.199996948242188 15.4399995803833008
177.550003051757812 108.269996643066406 20.1100006103515625
176.990005493164062 108.139999389648438 25.7399997711181641
177.610000610351562 108.319999694824219 17.5300006866455078
177.639999389648438 108.150001525878906 23.0900001525878906
177.6199951171875 108.180000305175781 21.1399993896484375
177.42999267578125 107.599998474121094 21.1599998474121094
177.460006713867188 107.389999389648438 26.6200008392333984
177.300003051757812 106.720001220703125 26.6299991607666016
177.470001220703125 107.379997253417969 24.6299991607666016
177.149993896484375 106.180000305175781 26.6399993896484375
177.1300048828125 106.339996337890625 21.1299991607666016
177.580001831054688 108.330001831054688 15.4399995803833008
177.020004272460938 105.580001831054688 26.6700000762939453
177.600006103515625 108.209999084472656 19.3199996948242188
177.639999389648438 107.970001220703125 26.6700000762939453
177.610000610351562 107.980003356933594 24.5
177.699996948242188 105.779998779296875 21.0400009155273438
177.55999755859375 105.160003662109375 21.1499996185302734
177.8800048828125 106.180000305175781 26.7700004577636719
177.740005493164062 105.529998779296875 26.5100002288818359
177.789993286132812 105.489997863769531 21.0100002288818359
177.75 105.480003356933594 26.6499996185302734
177.3699951171875 106.400001525878906 21.1499996185302734
177.30999755859375 106.44000244140625 26.6100006103515625
177.5 106.910003662109375 21.0900001525878906
177.600006103515625 107.519996643066406 24.6100006103515625
177.419998168945312 106.930000305175781 26.6399993896484375
177.009994506835938 105.360000610351562 26.5599994659423828
177.67999267578125 108.029998779296875 26.75
177.199996948242188 105.879997253417969 21.1100006103515625
177.100006103515625 105.349998474121094 21.1200008392333984
177.139999389648438 105.860000610351562 26.5699996948242188
177.580001831054688 107.550003051757812 26.6399993896484375
176.779998779296875 106.790000915527344 17.1599998474121094
177.029998779296875 107.919998168945312 21.1499996185302734
176.539993286132812 106.25 26.7900009155273438
176.979995727539062 107.910003662109375 23.1100006103515625
177.19000244140625 107.339996337890625 26.6800003051757812
177.020004272460938 106.790000915527344 26.6200008392333984
177.330001831054688 108.05999755859375 22.2199993133544922
177.259994506835938 107.779998779296875 21.0699996948242188
177.330001831054688 107.919998168945312 24.6900005340576172
177.389999389648438 108.110000610351562 15.7100000381469727
176.8699951171875 106.129997253417969 26.6599998474121094
177.1199951171875 107.169998168945312 21.1100006103515625
177.30999755859375 107.900001525878906 26.7000007629394531
176.970001220703125 106.379997253417969 17.5599994659423828
176.729995727539062 105.55999755859375 26.6299991607666016
176.990005493164062 106.510002136230469 21.1900005340576172
176.69000244140625 105.430000305175781 21.0300006866455078
177.350006103515625 108.099998474121094 13.7399997711181641
177.779998779296875 107.019996643066406 26.8099994659423828
177.529998779296875 105.849998474121094 26.5799999237060547
177.649993896484375 106.430000305175781 26.6299991607666016
177.44000244140625 105.569999694824219 21.1100006103515625
177.759994506835938 106.779998779296875 21.1399993896484375
177.589996337890625 106.209999084472656 21.0900001525878906
177.490005493164062 108.430000305175781 16.1000003814697266
177.600006103515625 108.5 13.5399999618530273
177.42999267578125 108.459999084472656 17.4300003051757812
176.94000244140625 106.099998474121094 26.5499992370605469
177.100006103515625 105.529998779296875 26.6599998474121094
177.5 106.300003051757812 26.6800003051757812
176.910003662109375 107.75 21.1000003814697266
176.910003662109375 107.160003662109375 17.0200004577636719
177.089996337890625 107.120002746582031 21.1100006103515625
177.229995727539062 106.480003356933594 21.1299991607666016
177.080001831054688 106.660003662109375 17.3299999237060547
177.350006103515625 106.919998168945312 26.7199993133544922
177.169998168945312 107.540000915527344 26.6499996185302734
178.110000610351562 105.569999694824219 20.8999996185302734
177.470001220703125 108.30999755859375 22.2700004577636719
177.410003662109375 108.400001525878906 20.3700008392333984
177.75 107.849998474121094 26.6800003051757812
177.300003051757812 108.379997253417969 18.3500003814697266
177.509994506835938 107.959999084472656 21.0799999237060547
177.720001220703125 107.819999694824219 24.5599994659423828
177.639999389648438 108.129997253417969 25.7800006866455078
177.210006713867188 108.389999389648438 16.1100006103515625
177.55999755859375 108.220001220703125 24.0100002288818359
178.029998779296875 106.349998474121094 26.6900005340576172
177.639999389648438 108.050003051757812 26.6800003051757812
177.19000244140625 107.199996948242188 26.6900005340576172
177.05999755859375 107.769996643066406 26.5900001525878906
177.539993286132812 106.660003662109375 21.1599998474121094
177.009994506835938 108.30999755859375 23.1900005340576172
177.110000610351562 108.290000915527344 21.1000003814697266
177.460006713867188 106.150001525878906 26.6100006103515625
177.339996337890625 106.650001525878906 26.5499992370605469
177.789993286132812 105.5 20.9599990844726562
177.600006103515625 105.529998779296875 26.6700000762939453
177.30999755859375 107.760002136230469 19.7299995422363281
177.229995727539062 107.739997863769531 21.1200008392333984
177.3699951171875 107.180000305175781 21.1000003814697266
176.710006713867188 106.209999084472656 26.75
177.039993286132812 105.680000305175781 21.1299991607666016
176.92999267578125 106.209999084472656 21.0900001525878906
176.80999755859375 105.720001220703125 26.5900001525878906
176.899993896484375 106.459999084472656 26.7600002288818359
177.050003051757812 105.919998168945312 26.5499992370605469
177.009994506835938 105.639999389648438 21.1200008392333984
176.740005493164062 107.069999694824219 26.8299999237060547
177.42999267578125 106.230003356933594 17.4699993133544922
177.339996337890625 106.949996948242188 21.1000003814697266
177.470001220703125 106.319999694824219 21.1599998474121094
177.160003662109375 107.55999755859375 21.0900001525878906
177.649993896484375 105.739997863769531 21.1000003814697266
177.520004272460938 106.569999694824219 26.5599994659423828
177.149993896484375 105.319999694824219 26.5100002288818359
177.050003051757812 108.120002746582031 21.2000007629394531
177.410003662109375 107.160003662109375 26.6900005340576172
177.199996948242188 107.709999084472656 24.7299995422363281
177.139999389648438 108.010002136230469 25.6399993896484375
177.270004272460938 107.730003356933594 26.6700000762939453
177.850006103515625 107.489997863769531 24.4200000762939453
177.539993286132812 108.180000305175781 15.4799995422363281
177.729995727539062 108.010002136230469 24.5699996948242188
177.539993286132812 108.209999084472656 17.6700000762939453
177.800003051757812 108.019996643066406 26.6700000762939453
177.55999755859375 108.410003662109375 21.2199993133544922
177.710006713867188 107.800003051757812 21.1200008392333984
