ply
format ascii 1.0
element vertex 189
property float x
property float y
property float z
end_header
286.67999267578125 104.800003051757812 11.1099996566772461
285.980010986328125 104.349998474121094 21.1399993896484375
285.8599853515625 103.680000305175781 18.8400001525878906
285.709991455078125 103.730003356933594 20.4400005340576172
285.989990234375 103.669998168945312 21.2700004577636719
285.170013427734375 103.870002746582031 20.1200008392333984
286.220001220703125 103.069999694824219 21.3600006103515625
286.920013427734375 105.180000305175781 11.0299997329711914
287.209991455078125 105.110000610351562 12
287.3800048828125 105.080001831054688 11.3400001525878906
286.220001220703125 103.930000305175781 9.52999973297119141
286.1300048828125 103.919998168945312 12.4600000381469727
284.760009765625 102.94000244140625 21.3600006103515625
286.17999267578125 103.239997863769531 21.2299995422363281
285.6199951171875 103.44000244140625 18.7399997711181641
286.220001220703125 103.290000915527344 18.9099998474121094
285.92999267578125 103.930000305175781 18.0900001525878906
286.029998779296875 103.930000305175781 15.3400001525878906
285.8599853515625 103.910003662109375 20.8500003814697266
288.970001220703125 103.830001831054688 21.3400001525878906
286.79998779296875 104.889999389648438 11.0299997329711914
286.230010986328125 105.019996643066406 11.0600004196166992
286.160003662109375 103.230003356933594 21.2000007629394531
286.75 103.05999755859375 21.3400001525878906
286.05999755859375 103.199996948242188 18.8600006103515625
286.149993896484375 103.949996948242188 21.3099994659423828
286.6400146484375 103.839996337890625 21.4599990844726562
286.480010986328125 103.819999694824219 16.4099998474121094
285.54998779296875 104.080001831054688 20.2000007629394531
286.1400146484375 104.639999389648438 21.1800003051757812
289.42999267578125 103.80999755859375 21.1399993896484375
288.899993896484375 103.919998168945312 21.2399997711181641
287.730010986328125 104.80999755859375 21.1599998474121094
287.5 105.160003662109375 11.9700002670288086
286.20001220703125 103.459999084472656 18.7999992370605469
286.32000732421875 103.419998168945312 21.2199993133544922
286.329986572265625 104.099998474121094 21.1399993896484375
287 103.910003662109375 21.4799995422363281
289.329986572265625 103.900001525878906 21.1800003051757812
286.170013427734375 104.730003356933594 21.2199993133544922
288.529998779296875 104.779998779296875 21.0699996948242188
286.6199951171875 104.94000244140625 11
287.55999755859375 105.139999389648438 12.0500001907348633
287.220001220703125 105.080001831054688 11.3299999237060547
286.170013427734375 103.739997863769531 8.77000045776367188
286.239990234375 103.769996643066406 7.26999998092651367
286.170013427734375 103.699996948242188 11.619999885559082
286.1099853515625 103.669998168945312 13.1000003814697266
286.170013427734375 103.720001220703125 10.1899995803833008
285.839996337890625 102.800003051757812 21.1100006103515625
285.920013427734375 103.610000610351562 16.1200008392333984
285.980010986328125 103.550003051757812 18.9400005340576172
286.3800048828125 104.760002136230469 21.3500003814697266
285.920013427734375 104.099998474121094 21.1599998474121094
285.720001220703125 104.05999755859375 20.1599998474121094
286.17999267578125 103.599998474121094 21.2900009155273438
286.029998779296875 103.660003662109375 14.6400003433227539
287.470001220703125 105.029998779296875 11.9600000381469727
286.470001220703125 104.730003356933594 11.0399999618530273
287.05999755859375 104.879997253417969 11.130000114440918
286.1199951171875 103.949996948242188 7.73999977111816406
285.6099853515625 104.010002136230469 21.5900001525878906
286.350006103515625 103.510002136230469 18.9699993133544922
285.42999267578125 103.910003662109375 20.1499996185302734
285.779998779296875 103.410003662109375 18.8600006103515625
286.160003662109375 102.870002746582031 21.3299999237060547
286.32000732421875 104.839996337890625 21.3700008392333984
285.670013427734375 104.680000305175781 21.3299999237060547
287.149993896484375 105.010002136230469 11.1899995803833008
287.649993896484375 105.129997253417969 11.8500003814697266
285.3800048828125 103.029998779296875 21.4300003051757812
285.8699951171875 103.180000305175781 18.8700008392333984
284.82000732421875 102.889999389648438 21.3099994659423828
285.95001220703125 103.150001525878906 21.2700004577636719
289.260009765625 104.010002136230469 21.1900005340576172
288.660003662109375 103.849998474121094 21.2000007629394531
287.510009765625 102.919998168945312 21.1900005340576172
286.350006103515625 104.660003662109375 21.3199996948242188
286.8699951171875 104.790000915527344 21.2999992370605469
286.3800048828125 103.980003356933594 21.5499992370605469
289.220001220703125 104.699996948242188 21.0400009155273438
289.80999755859375 104.849998474121094 20.8500003814697266
285.279998779296875 103.730003356933594 20.1399993896484375
285.80999755859375 103.879997253417969 21.4300003051757812
286.540008544921875 103.959999084472656 8.51000022888183594
286.489990234375 103.970001220703125 10.2299995422363281
287.089996337890625 104.720001220703125 11.2200002670288086
286.149993896484375 104.029998779296875 21.1599998474121094
285.670013427734375 103.94000244140625 21.6499996185302734
285.20001220703125 103.800003051757812 20.1800003051757812
286.160003662109375 103.349998474121094 18.8700008392333984
286.32000732421875 103.419998168945312 21.1599998474121094
287.209991455078125 104.889999389648438 21.3099994659423828
286.540008544921875 104.75 21.2000007629394531
285.980010986328125 104.589996337890625 21.3799991607666016
286.209991455078125 104.010002136230469 17.3199996948242188
289.19000244140625 104.760002136230469 20.9300003051757812
286.329986572265625 103.970001220703125 13.8000001907348633
286.1099853515625 104.019996643066406 19.1100006103515625
286.25 103.959999084472656 15.5
286.30999755859375 104.010002136230469 9.67000007629394531
286.29998779296875 103.959999084472656 11.8999996185302734
286.57000732421875 105 11.0500001907348633
285.8900146484375 104.849998474121094 21.3400001525878906
285.67999267578125 103.910003662109375 20.1800003051757812
285.42999267578125 103.029998779296875 21.3999996185302734
286.17999267578125 103.05999755859375 21.2800006866455078
286.29998779296875 103.589996337890625 18.7600002288818359
286.30999755859375 103.94000244140625 13.9300003051757812
286.3900146484375 103.790000915527344 21.3999996185302734
287.040008544921875 103.910003662109375 21.4899997711181641
288.95001220703125 102.910003662109375 21.0499992370605469
287.6199951171875 105.05999755859375 12
289.239990234375 103.860000610351562 21.2000007629394531
288.079986572265625 104.680000305175781 21.1399993896484375
287.660003662109375 102.989997863769531 21.2399997711181641
287.19000244140625 103.94000244140625 21.5300006866455078
286.1300048828125 102.680000305175781 21.2700004577636719
286.399993896484375 103.800003051757812 21.5400009155273438
286.290008544921875 103.169998168945312 19
286.25 103.220001220703125 21.2199993133544922
286.67999267578125 104.900001525878906 21.3099994659423828
285.67999267578125 103.639999389648438 18.9300003051757812
285.94000244140625 104.80999755859375 21.3500003814697266
284.80999755859375 102.889999389648438 21.3199996948242188
287.07000732421875 105.129997253417969 11.0900001525878906
286.079986572265625 103.779998779296875 12.6700000762939453
286.3699951171875 104.910003662109375 21.2600002288818359
285.92999267578125 103.120002746582031 21.2299995422363281
286.04998779296875 103.75 21.1700000762939453
285.1099853515625 102.989997863769531 21.3299999237060547
286.20001220703125 104.290000915527344 21.2199993133544922
285.92999267578125 103.269996643066406 18.8299999237060547
286.04998779296875 103.760002136230469 19.0799999237060547
286.07000732421875 103.760002136230469 14.9799995422363281
287.230010986328125 103.040000915527344 21.3899993896484375
288.25 103.910003662109375 21.3299999237060547
289.149993896484375 104.680000305175781 21.0499992370605469
286.519989013671875 105.029998779296875 11.1099996566772461
286.07000732421875 104 10.4700002670288086
286.149993896484375 104.040000915527344 12.6599998474121094
285.07000732421875 103.760002136230469 20.1499996185302734
287.82000732421875 103.989997863769531 21.3199996948242188
287.6400146484375 103.75 16.2999992370605469
287.25 103.779998779296875 21.4200000762939453
286.760009765625 102.949996948242188 21.3700008392333984
286.350006103515625 104.720001220703125 21.3400001525878906
287.410003662109375 103.050003051757812 21.1700000762939453
286.269989013671875 104.019996643066406 14.8000001907348633
289.720001220703125 104.769996643066406 20.9599990844726562
289.1099853515625 103.709999084472656 16.1599998474121094
288.730010986328125 102.989997863769531 21.0599994659423828
288.239990234375 104.800003051757812 21.1000003814697266
289.220001220703125 103.970001220703125 21.1499996185302734
285.959991455078125 103.110000610351562 21.25
285.79998779296875 103.849998474121094 21.5799999237060547
285.660003662109375 104.05999755859375 20.1100006103515625
285.69000244140625 103.69000244140625 18.7700004577636719
287.05999755859375 104.949996948242188 11.1899995803833008
286.339996337890625 105.160003662109375 11.0600004196166992
288.1400146484375 104.730003356933594 21.1200008392333984
289.25 103.010002136230469 20.9500007629394531
285.79998779296875 103.540000915527344 18.8799991607666016
286.1199951171875 104.589996337890625 21.2299995422363281
285.589996337890625 104.080001831054688 20.2099990844726562
286.5 102.980003356933594 21.3999996185302734
285.850006103515625 103.019996643066406 21.3400001525878906
286.920013427734375 103.860000610351562 21.5499992370605469
287.3800048828125 104.900001525878906 21.2700004577636719
287.6400146484375 103.790000915527344 21.3999996185302734
286.239990234375 104.050003051757812 21.2299995422363281
287.019989013671875 104.910003662109375 11.1499996185302734
286.32000732421875 105 11.0200004577636719
286.55999755859375 103.830001831054688 8.57999992370605469
288.1099853515625 103.839996337890625 21.2600002288818359
289.82000732421875 104.860000610351562 20.9099998474121094
285.410003662109375 103.839996337890625 21.6800003051757812
285.420013427734375 103.75 20.0100002288818359
286.82000732421875 103.800003051757812 21.5699996948242188
286.079986572265625 103.919998168945312 17.1200008392333984
286.1099853515625 103.870002746582031 19.2399997711181641
286.20001220703125 103.419998168945312 18.8099994659423828
285.970001220703125 104.55999755859375 21.2299995422363281
286.07000732421875 103.839996337890625 15.3999996185302734
286 103.800003051757812 13.2700004577636719
286.29998779296875 103.330001831054688 21.2099990844726562
286.160003662109375 103.94000244140625 21.2900009155273438
289.19000244140625 104.930000305175781 20.9599990844726562
288.70001220703125 103.839996337890625 14.6800003051757812
