ply
format ascii 1.0
element vertex 106
property float x
property float y
property float z
end_header
460.149993896484375 135.330001831054688 6.17999982833862305
459.769989013671875 135.410003662109375 7.19000005722045898
460.25 135.32000732421875 7.46999979019165039
459.989990234375 136.009994506835938 6.94000005722045898
459.8800048828125 135.970001220703125 8.97999954223632812
460.3800048828125 135.899993896484375 7.75
459.769989013671875 135.520004272460938 5.63000011444091797
460.239990234375 135.419998168945312 6.84000015258789062
459.6400146484375 135.580001831054688 6.98000001907348633
460.3900146484375 136.050003051757812 6.30999994277954102
460.730010986328125 138.020004272460938 6.63000011444091797
461.339996337890625 137.8699951171875 6.6100001335144043
459.739990234375 135.520004272460938 6.90999984741210938
460.230010986328125 135.399993896484375 6.30000019073486328
460 136.050003051757812 7.17999982833862305
460.44000244140625 135.970001220703125 6.23000001907348633
459.769989013671875 135.460006713867188 6.19000005722045898
460.07000732421875 135.399993896484375 6.78999996185302734
459.70001220703125 135.509994506835938 7.44000005722045898
460.42999267578125 136.020004272460938 6.5
460.010009765625 136.100006103515625 7.07000017166137695
460.399993896484375 135.220001220703125 7.51999998092651367
460.149993896484375 135.110000610351562 6.30999994277954102
459.8900146484375 135.639999389648438 6.86999988555908203
459.79998779296875 135.600006103515625 5.23999977111816406
459.8900146484375 135.67999267578125 8.59000015258789062
460.04998779296875 135.729995727539062 10.0100002288818359
460.04998779296875 136.419998168945312 8.32999992370605469
461.459991455078125 137.92999267578125 6.57000017166137695
460.29998779296875 135.259994506835938 7.40000009536743164
460.420013427734375 135.259994506835938 6.42000007629394531
460.290008544921875 135.830001831054688 7.21999979019165039
459.850006103515625 135.759994506835938 5.82000017166137695
460.1099853515625 135.779998779296875 9.36999988555908203
462.589996337890625 137.789993286132812 6.73999977111816406
460.730010986328125 137.990005493164062 6.63000011444091797
460.290008544921875 135.470001220703125 6.90999984741210938
460.07000732421875 135.389999389648438 5.76999998092651367
460.019989013671875 135.990005493164062 6.48999977111816406
460.019989013671875 135.649993896484375 9.10000038146972656
459.970001220703125 135.67999267578125 6.09999990463256836
459.92999267578125 135.6199951171875 7.48000001907348633
460.089996337890625 135.720001220703125 4.76999998092651367
462.25 138.020004272460938 6.26000022888183594
460.19000244140625 135.80999755859375 8.27000045776367188
460.089996337890625 135.360000610351562 7.46000003814697266
460.1199951171875 135.529998779296875 6.40000009536743164
460.1400146484375 135.770004272460938 9.56999969482421875
460.220001220703125 135.82000732421875 5.73000001907348633
461.57000732421875 138.1300048828125 6.21000003814697266
459.649993896484375 135.399993896484375 7.53999996185302734
459.82000732421875 135.789993286132812 9.02999973297119141
459.769989013671875 135.789993286132812 7
460.510009765625 135.770004272460938 8.55000019073486328
460.54998779296875 135.860000610351562 6.48000001907348633
461.970001220703125 137.75 6.65999984741210938
460.019989013671875 135.199996948242188 6.25
460.040008544921875 135.69000244140625 10.8999996185302734
460.100006103515625 135.729995727539062 9.10999965667724609
460.220001220703125 136.279998779296875 10.1800003051757812
460.19000244140625 138.270004272460938 6.67000007629394531
459.649993896484375 135.839996337890625 7.07999992370605469
459.660003662109375 135.8699951171875 8.81999969482421875
460.149993896484375 135.539993286132812 9.10000038146972656
460.20001220703125 135.649993896484375 10.8900003433227539
460.25 135.850006103515625 7.96000003814697266
460.20001220703125 135.55999755859375 7.03000020980834961
460.269989013671875 135.850006103515625 5.92999982833862305
460.1400146484375 135.270004272460938 5.80999994277954102
461.480010986328125 137.92999267578125 6.3600001335144043
462.220001220703125 137.600006103515625 6.30999994277954102
461.920013427734375 137.919998168945312 6.30999994277954102
461.290008544921875 138.039993286132812 6.34999990463256836
460.100006103515625 135.919998168945312 5.32999992370605469
460.160003662109375 135.360000610351562 7.17000007629394531
459.959991455078125 135.729995727539062 9.22000026702880859
459.989990234375 135.850006103515625 8.14000034332275391
459.920013427734375 135.75 10.6499996185302734
460.04998779296875 135.889999389648438 6.69000005722045898
459.470001220703125 135.539993286132812 7.23000001907348633
459.510009765625 135.69000244140625 6.1399998664855957
460.040008544921875 135.67999267578125 11.0799999237060547
459.989990234375 135.75 9.10999965667724609
459.989990234375 135.25 7.21999979019165039
459.910003662109375 135.460006713867188 5.94999980926513672
459.8699951171875 135.710006713867188 6.8899998664855957
460.44000244140625 136.05999755859375 6.36999988555908203
460.57000732421875 135.759994506835938 7.67000007629394531
461.399993896484375 138.050003051757812 6.32000017166137695
462.089996337890625 137.759994506835938 6.48000001907348633
460.170013427734375 135.669998168945312 11.0200004577636719
460.32000732421875 135.740005493164062 7.73000001907348633
460.239990234375 135.699996948242188 9.73999977111816406
460.3599853515625 135.779998779296875 6.15999984741210938
459.760009765625 135.449996948242188 7.21000003814697266
459.579986572265625 135.990005493164062 7.30999994277954102
459.79998779296875 135.449996948242188 5.96000003814697266
459.720001220703125 135.419998168945312 6.1399998664855957
459.660003662109375 135.8699951171875 9.02999973297119141
459.70001220703125 135.710006713867188 7.40000009536743164
460.350006103515625 135.8699951171875 8.03999996185302734
460.399993896484375 135.539993286132812 7.13000011444091797
460.279998779296875 135.889999389648438 5.98999977111816406
460.17999267578125 136.289993286132812 6.61999988555908203
461.260009765625 137.80999755859375 6.32000017166137695
461.94000244140625 137.75 6.34999990463256836
