ply
format ascii 1.0
element vertex 185
property float x
property float y
property float z
end_header
338.19000244140625 104.730003356933594 9.93999958038330078
338.649993896484375 104.610000610351562 10.3100004196166992
337.8699951171875 102.620002746582031 15.7100000381469727
337.720001220703125 102.629997253417969 18.3999996185302734
335.290008544921875 102.660003662109375 18.2700004577636719
338.230010986328125 104.620002746582031 18.1200008392333984
337.57000732421875 104.139999389648438 15.6099996566772461
338.5 104.540000915527344 17.1900005340576172
338.1199951171875 103.959999084472656 15.7899999618530273
338.1099853515625 103.94000244140625 17.9899997711181641
337.989990234375 103.230003356933594 17.7600002288818359
338.339996337890625 103.930000305175781 17.1700000762939453
338.350006103515625 104.599998474121094 15.75
337.8800048828125 103.290000915527344 15.8199996948242188
338.730010986328125 104.720001220703125 10.1800003051757812
338.20001220703125 104.839996337890625 9.97000026702880859
338.67999267578125 104.800003051757812 17.0400009155273438
336.670013427734375 102.639999389648438 18.3099994659423828
338.269989013671875 103.489997863769531 18.0699996948242188
337.739990234375 102.900001525878906 15.7799997329711914
338.290008544921875 103.459999084472656 15.6499996185302734
338.170013427734375 104.25 17.8600006103515625
338.149993896484375 104.239997863769531 15.7600002288818359
337.70001220703125 103.639999389648438 15.8500003814697266
337.6300048828125 104.349998474121094 15.7700004577636719
337.089996337890625 104.519996643066406 18.1100006103515625
338.670013427734375 103.860000610351562 10.0100002288818359
338.6099853515625 103.830001831054688 12.0200004577636719
338.510009765625 104.959999084472656 17.1299991607666016
338.260009765625 104.5 15.75
338.6099853515625 104.400001525878906 17.0499992370605469
338.30999755859375 104.480003356933594 18
338.3900146484375 103.860000610351562 15.3999996185302734
337.829986572265625 103.980003356933594 15.7299995422363281
337.92999267578125 103.25 15.8199996948242188
337.579986572265625 102.720001220703125 15.7399997711181641
338.489990234375 103.849998474121094 13.869999885559082
335.350006103515625 102.680000305175781 18.3099994659423828
338.6400146484375 103.550003051757812 7.03999996185302734
338.600006103515625 103.540000915527344 5.67999982833862305
338.470001220703125 103.580001831054688 8.14999961853027344
338.329986572265625 103.819999694824219 7.63000011444091797
338.32000732421875 104.430000305175781 10.1800003051757812
338.790008544921875 104.529998779296875 10.4200000762939453
338.6099853515625 104.019996643066406 17.2399997711181641
337.8599853515625 103.819999694824219 15.7600002288818359
338.3599853515625 103.349998474121094 15.8900003433227539
338.30999755859375 103.370002746582031 18.0699996948242188
337.850006103515625 103.879997253417969 17.7800006866455078
337.730010986328125 103.199996948242188 15.7799997329711914
338.44000244140625 104.550003051757812 18.1299991607666016
337.850006103515625 104.349998474121094 15.8299999237060547
338.42999267578125 104.489997863769531 15.8500003814697266
337.790008544921875 104.400001525878906 17.9799995422363281
338.730010986328125 104.620002746582031 17.1499996185302734
339.019989013671875 104.760002136230469 11.4600000381469727
338.459991455078125 104.629997253417969 10.0399999618530273
337.3900146484375 102.900001525878906 15.7600002288818359
336.829986572265625 102.69000244140625 18.3099994659423828
337.959991455078125 103.019996643066406 15.880000114440918
337.970001220703125 102.989997863769531 17.8400001525878906
336.230010986328125 102.589996337890625 18.2900009155273438
337.850006103515625 103.739997863769531 18.1399993896484375
337.239990234375 103.610000610351562 18.3400001525878906
338.42999267578125 103.94000244140625 15.4700002670288086
337.8599853515625 103.80999755859375 15.8400001525878906
338.3599853515625 104.540000915527344 18.1499996185302734
336.730010986328125 103.459999084472656 18.3999996185302734
337.8599853515625 104.44000244140625 15.7799997329711914
338.420013427734375 104.569999694824219 15.7899999618530273
336.160003662109375 104.55999755859375 18.1200008392333984
338.3800048828125 104.519996643066406 17.1499996185302734
335.6400146484375 104.449996948242188 18.1499996185302734
338.399993896484375 103.879997253417969 17.1499996185302734
338.290008544921875 103.800003051757812 7.65000009536743164
338.399993896484375 104.529998779296875 10.2399997711181641
338.6400146484375 104.650001525878906 15.7700004577636719
338.040008544921875 104.529998779296875 18.0300006866455078
338.54998779296875 104.040000915527344 17.0699996948242188
338.1300048828125 103.94000244140625 17.8899993896484375
338.42999267578125 104.610000610351562 17.1299991607666016
338.149993896484375 103.919998168945312 15.630000114440918
338.959991455078125 104.760002136230469 16.8500003814697266
338.07000732421875 104.519996643066406 15.7299995422363281
338.269989013671875 103.290000915527344 15.4700002670288086
337.80999755859375 103.209999084472656 15.8900003433227539
338.5 104.680000305175781 10.3199996948242188
338.279998779296875 103.889999389648438 7.46999979019165039
338.44000244140625 104.199996948242188 17.1499996185302734
338.32000732421875 103.720001220703125 15.6400003433227539
338.29998779296875 103.639999389648438 17.3700008392333984
338.510009765625 104.489997863769531 15.9799995422363281
337.80999755859375 104.379997253417969 15.869999885559082
337.45001220703125 103.150001525878906 15.7799997329711914
338.160003662109375 103.120002746582031 15.6800003051757812
337.850006103515625 104.449996948242188 18.1700000762939453
338.54998779296875 104.459999084472656 18.2000007629394531
337.410003662109375 102.720001220703125 18.3400001525878906
338.589996337890625 104.819999694824219 17.0599994659423828
336.720001220703125 102.550003051757812 18.3400001525878906
337.32000732421875 102.629997253417969 16.0699996948242188
337.579986572265625 104.089996337890625 15.8100004196166992
337.720001220703125 104.639999389648438 15.7799997329711914
338.029998779296875 103.129997253417969 17.8400001525878906
338.04998779296875 103.150001525878906 15.8999996185302734
338.329986572265625 104.209999084472656 15.6800003051757812
338.29998779296875 104.230003356933594 17.1800003051757812
338.45001220703125 104.75 17.1499996185302734
338.20001220703125 103.709999084472656 17.9500007629394531
338.20001220703125 103.680000305175781 15.8299999237060547
337.32000732421875 103.019996643066406 15.7799997329711914
337.959991455078125 102.610000610351562 15.7100000381469727
335.20001220703125 102.680000305175781 18.2700004577636719
336.329986572265625 104.419998168945312 18.1299991607666016
336.730010986328125 103.569999694824219 18.3400001525878906
336.989990234375 104.629997253417969 18.2000007629394531
336.79998779296875 103.55999755859375 14.369999885559082
338.649993896484375 103.529998779296875 5.90000009536743164
338.6300048828125 103.580001831054688 7.82999992370605469
338.6099853515625 103.580001831054688 9.86999988555908203
337.95001220703125 103.419998168945312 15.869999885559082
338.1099853515625 104.05999755859375 15.869999885559082
337.80999755859375 102.919998168945312 15.7100000381469727
338.290008544921875 104.669998168945312 15.8400001525878906
336.470001220703125 103.5 18.3400001525878906
338.8800048828125 104.680000305175781 16.9300003051757812
338.29998779296875 104.839996337890625 17.2099990844726562
338.220001220703125 104.620002746582031 18.1299991607666016
338.1300048828125 104.069999694824219 17.8899993896484375
335.980010986328125 104.470001220703125 18.1100006103515625
335.489990234375 102.599998474121094 18.2800006866455078
335.149993896484375 103.519996643066406 18.2700004577636719
338.089996337890625 103.720001220703125 7.57999992370605469
338.290008544921875 103.830001831054688 12.1599998474121094
338.6300048828125 104.75 10.1700000762939453
338.29998779296875 104.279998779296875 15.7899999618530273
338.339996337890625 103.800003051757812 14.1499996185302734
337.69000244140625 102.599998474121094 18.3099994659423828
337.420013427734375 103.150001525878906 15.75
338.8699951171875 104.860000610351562 16.9699993133544922
338.420013427734375 103.790000915527344 16.0300006866455078
338.260009765625 104.669998168945312 17.1100006103515625
338.420013427734375 104.080001831054688 17.1100006103515625
338.3599853515625 104.370002746582031 18.1900005340576172
338.05999755859375 102.730003356933594 15.7200002670288086
337.94000244140625 103.339996337890625 15.8000001907348633
337.709991455078125 104.580001831054688 18.1499996185302734
338 103.370002746582031 17.9400005340576172
337.8699951171875 103.949996948242188 17.9099998474121094
337.769989013671875 103.94000244140625 15.869999885559082
335.6300048828125 103.669998168945312 18.3199996948242188
336.850006103515625 103.639999389648438 18.3700008392333984
335.989990234375 104.5 18.0499992370605469
338.410003662109375 104.959999084472656 17.1599998474121094
338.519989013671875 104.419998168945312 17.1399993896484375
338.489990234375 104.400001525878906 18.1499996185302734
338.6099853515625 104.430000305175781 15.8900003433227539
337.910003662109375 104.040000915527344 17.8899993896484375
337.970001220703125 104.069999694824219 15.880000114440918
338.1099853515625 103.5 15.8100004196166992
338.04998779296875 103.480003356933594 17.9099998474121094
337.75 104.589996337890625 18.1200008392333984
337.8699951171875 104.580001831054688 15.75
336.829986572265625 102.610000610351562 18.3199996948242188
337.57000732421875 103.050003051757812 15.7799997329711914
337.75 102.5 15.7100000381469727
337.350006103515625 103.589996337890625 18.4099998474121094
336.019989013671875 102.620002746582031 18.3600006103515625
338.19000244140625 103.529998779296875 7.44999980926513672
338.55999755859375 104.800003051757812 10.1700000762939453
338.760009765625 103.639999389648438 6.07999992370605469
338.730010986328125 104.730003356933594 16.9799995422363281
337.82000732421875 102.720001220703125 15.619999885559082
337.45001220703125 104.430000305175781 18.0799999237060547
337.730010986328125 103.220001220703125 15.9399995803833008
337.6199951171875 103.769996643066406 18.3899993896484375
338.32000732421875 103.769996643066406 17.3199996948242188
338.20001220703125 104.260002136230469 15.7100000381469727
338.329986572265625 103.639999389648438 15.6899995803833008
338.20001220703125 104.269996643066406 17.8999996185302734
338.3699951171875 103.470001220703125 14.25
335.970001220703125 102.800003051757812 18.3500003814697266
336.339996337890625 103.569999694824219 14.3199996948242188
336.399993896484375 103.629997253417969 18.3600006103515625
334.6099853515625 102.760002136230469 18.3199996948242188
