ply
format ascii 1.0
element vertex 242
property float x
property float y
property float z
end_header
409.279998779296875 104.629997253417969 5.84999990463256836
409.29998779296875 104.589996337890625 9.60999965667724609
410.6099853515625 104.25 11.2200002670288086
409.170013427734375 99.80999755859375 15.5900001525878906
409.579986572265625 105.150001525878906 17.0900001525878906
409.579986572265625 104.430000305175781 16.2600002288818359
408.95001220703125 105.260002136230469 17.0400009155273438
410.25 104.319999694824219 16.2900009155273438
408.160003662109375 104.19000244140625 16.2000007629394531
408.519989013671875 104.120002746582031 16.9799995422363281
410.67999267578125 103.620002746582031 16.0400009155273438
409.329986572265625 103.209999084472656 17
409.720001220703125 103.80999755859375 17.0699996948242188
408.910003662109375 104.629997253417969 16.2000007629394531
408.410003662109375 103.470001220703125 16.0200004577636719
409.230010986328125 103.970001220703125 16.8199996948242188
407.92999267578125 104.19000244140625 13.2100000381469727
409.8900146484375 104.430000305175781 16.2600002288818359
410.420013427734375 104.279998779296875 16.2399997711181641
409.329986572265625 104.540000915527344 16.2700004577636719
409.899993896484375 105.169998168945312 17.1200008392333984
409.3599853515625 105.319999694824219 17.2299995422363281
407.8800048828125 103.010002136230469 16.8700008392333984
408.42999267578125 103.540000915527344 16.0599994659423828
409.470001220703125 103.260002136230469 17
410.6300048828125 102.94000244140625 15.9099998474121094
410.57000732421875 103.580001831054688 16.0499992370605469
409.410003662109375 103.870002746582031 17.0300006866455078
408.29998779296875 104.129997253417969 16.2900009155273438
409.3599853515625 99.2099990844726562 15.4799995422363281
409.350006103515625 99.970001220703125 15.5100002288818359
411.029998779296875 104.470001220703125 9.22999954223632812
409.6099853515625 103.370002746582031 16.9599990844726562
408.6300048828125 104.25 16.2700004577636719
409.399993896484375 104.05999755859375 17.0900001525878906
409.67999267578125 102.769996643066406 16.0699996948242188
408.540008544921875 103.050003051757812 16.0900001525878906
409.600006103515625 105.370002746582031 17.1100006103515625
409.670013427734375 104.69000244140625 17.0499992370605469
410.149993896484375 104.610000610351562 16.2299995422363281
409.410003662109375 104.239997863769531 6
409.42999267578125 104.269996643066406 10.2799997329711914
409.410003662109375 104.269996643066406 7.32999992370605469
409.44000244140625 104.30999755859375 13.0699996948242188
409.480010986328125 104.300003051757812 11.8299999237060547
409.30999755859375 104.220001220703125 4.46000003814697266
409.489990234375 104.239997863769531 8.92000007629394531
409.54998779296875 104.30999755859375 16.1499996185302734
409.589996337890625 103.5 16.9799995422363281
409.57000732421875 105.089996337890625 17.0900001525878906
409.149993896484375 104.519996643066406 5.55000019073486328
409 104.459999084472656 4.19999980926513672
409.489990234375 98.9300003051757812 15.4899997711181641
408.480010986328125 105.150001525878906 16.8799991607666016
409.07000732421875 105.330001831054688 17.1299991607666016
409.75 104.790000915527344 17.0799999237060547
408.100006103515625 104.379997253417969 16.2299995422363281
409.339996337890625 104.699996948242188 16.3299999237060547
409.269989013671875 103.879997253417969 16.8199996948242188
410.910003662109375 102.209999084472656 15.7600002288818359
408.579986572265625 102.970001220703125 16.9799995422363281
409.290008544921875 103.139999389648438 16.9899997711181641
408.739990234375 104.519996643066406 16.2900009155273438
410.80999755859375 102.900001525878906 15.9899997711181641
409.420013427734375 103.459999084472656 13.1499996185302734
409.420013427734375 104.050003051757812 13.25
410.69000244140625 104.419998168945312 11.1599998474121094
408.899993896484375 105.930000305175781 10.6800003051757812
409.339996337890625 99.7300033569335938 15.5399999618530273
408.720001220703125 105.029998779296875 16.8600006103515625
409.779998779296875 105.30999755859375 17.2199993133544922
408.67999267578125 104.379997253417969 16.2999992370605469
409.239990234375 105.19000244140625 17.1000003814697266
409.720001220703125 104.080001831054688 17.0300006866455078
409.779998779296875 104.660003662109375 17
408.69000244140625 102.580001831054688 15.869999885559082
409.260009765625 104.550003051757812 16.2199993133544922
410.339996337890625 104.279998779296875 16.1299991607666016
409.82000732421875 102.25 16.0499992370605469
409.70001220703125 103.489997863769531 17.0100002288818359
409.20001220703125 103.949996948242188 16.4599990844726562
410.94000244140625 102.010002136230469 15.75
410.42999267578125 104.319999694824219 14.75
409.779998779296875 102.879997253417969 16.1499996185302734
408.029998779296875 103.05999755859375 16.8799991607666016
407.480010986328125 102.949996948242188 16.9699993133544922
408.70001220703125 101.989997863769531 15.7600002288818359
408.1099853515625 104.25 16.1900005340576172
410.540008544921875 104.209999084472656 11.1999998092651367
409.45001220703125 104.540000915527344 4.48999977111816406
409.8900146484375 104.839996337890625 16.9799995422363281
409.019989013671875 105.230003356933594 17
408.489990234375 102.370002746582031 15.8299999237060547
410.45001220703125 104.279998779296875 16.2900009155273438
409.8800048828125 102.099998474121094 15.8999996185302734
408.839996337890625 101.169998168945312 15.7899999618530273
408.57000732421875 103.040000915527344 16.9799995422363281
409.44000244140625 104.019996643066406 17.0900001525878906
409.230010986328125 103.209999084472656 17.0400009155273438
410.010009765625 101.430000305175781 15.8500003814697266
408.519989013671875 104.470001220703125 16.2600002288818359
410.80999755859375 104.260002136230469 11.0900001525878906
409.540008544921875 103.230003356933594 16.2299995422363281
409.269989013671875 103.19000244140625 17.0599994659423828
409.399993896484375 99.7099990844726562 15.4600000381469727
410.25 100.580001831054688 15.7700004577636719
409.660003662109375 104.569999694824219 17.0799999237060547
408.54998779296875 104.290000915527344 16.2399997711181641
409.70001220703125 105.339996337890625 17.1100006103515625
409.829986572265625 104.620002746582031 16.1200008392333984
409.350006103515625 104.550003051757812 6.38000011444091797
409.339996337890625 104.489997863769531 8.31999969482421875
409.350006103515625 104.430000305175781 10.2899999618530273
409.30999755859375 104.620002746582031 4.51000022888183594
409.3599853515625 104.389999389648438 12.1400003433227539
410.6300048828125 104.389999389648438 11.130000114440918
410.079986572265625 104.379997253417969 16.2399997711181641
409.399993896484375 104.349998474121094 14.1999998092651367
410.579986572265625 104.010002136230469 16.1499996185302734
407.6199951171875 102.930000305175781 16.8999996185302734
409.660003662109375 105.209999084472656 17.2099990844726562
408.480010986328125 103.519996643066406 16.0799999237060547
408.6099853515625 104.110000610351562 16.3299999237060547
409.339996337890625 104.050003051757812 17.2700004577636719
409.3900146484375 104.360000610351562 16.2399997711181641
410.6099853515625 104.209999084472656 14.6800003051757812
409.149993896484375 103.370002746582031 17
409.920013427734375 101.680000305175781 12.8500003814697266
410.6300048828125 104.44000244140625 11.2299995422363281
409.149993896484375 106.239997863769531 7.36999988555908203
407.989990234375 104.239997863769531 11.4099998474121094
407.989990234375 104.220001220703125 13.2299995422363281
408.160003662109375 102.989997863769531 16.8299999237060547
409.6400146484375 103.599998474121094 17.0300006866455078
409.540008544921875 103.05999755859375 17.0200004577636719
409.790008544921875 104.129997253417969 17.0100002288818359
408.720001220703125 102.639999389648438 15.8999996185302734
409.1300048828125 104.319999694824219 16.25
408.410003662109375 104.089996337890625 16.5599994659423828
409.010009765625 100.800003051757812 15.5900001525878906
409.8699951171875 101.699996948242188 15.8900003433227539
409.019989013671875 103.769996643066406 16.3299999237060547
409.329986572265625 99.5199966430664062 15.5
408.70001220703125 105.139999389648438 16.8700008392333984
410.529998779296875 104.480003356933594 16.3400001525878906
410.399993896484375 103.870002746582031 16.0499992370605469
410.07000732421875 105.209999084472656 17.0599994659423828
410.67999267578125 102.650001525878906 15.880000114440918
409.920013427734375 104.660003662109375 16.2399997711181641
408.30999755859375 103.529998779296875 16.1299991607666016
410.089996337890625 100.339996337890625 15.6899995803833008
409.230010986328125 104.239997863769531 10.4099998474121094
409.290008544921875 104.239997863769531 8.25
409.269989013671875 104.269996643066406 4.09000015258789062
409.239990234375 104.160003662109375 12.6599998474121094
409.29998779296875 104.239997863769531 6.21000003814697266
410.94000244140625 102.220001220703125 15.7899999618530273
410.739990234375 104.300003051757812 16.3999996185302734
409.44000244140625 99.1500015258789062 15.4399995803833008
409.239990234375 104.220001220703125 14.8299999237060547
409.70001220703125 103.25 16.9799995422363281
408.92999267578125 102.989997863769531 16.8600006103515625
409.25 104.339996337890625 16.3700008392333984
407.8599853515625 104.19000244140625 13.2799997329711914
410.019989013671875 104.660003662109375 16.2900009155273438
408.839996337890625 105.150001525878906 17
409.989990234375 101.419998168945312 15.8199996948242188
409.6300048828125 102.930000305175781 16.1100006103515625
408.6099853515625 104.19000244140625 16.25
408.420013427734375 103.589996337890625 16.0900001525878906
410.57000732421875 103.730003356933594 16.0200004577636719
409.480010986328125 105.279998779296875 17.3299999237060547
408.029998779296875 104.260002136230469 11.369999885559082
409.3900146484375 104.55999755859375 8.10999965667724609
409.480010986328125 104.510002136230469 9.92000007629394531
409.19000244140625 104.610000610351562 4.17999982833862305
409.29998779296875 104.580001831054688 6.13000011444091797
409.29998779296875 102.819999694824219 17.0799999237060547
409.010009765625 104.069999694824219 17.1399993896484375
408.8800048828125 104.44000244140625 16.2700004577636719
409.160003662109375 103.400001525878906 16.9400005340576172
408.17999267578125 104.419998168945312 16.1700000762939453
408.079986572265625 104.169998168945312 13.2899999618530273
408.829986572265625 104.19000244140625 13.3999996185302734
408.29998779296875 103.760002136230469 16.1599998474121094
408.30999755859375 104.069999694824219 17.1800003051757812
408.739990234375 105.239997863769531 16.9799995422363281
408.459991455078125 103.120002746582031 16.1000003814697266
410.470001220703125 104.410003662109375 16.2399997711181641
410.670013427734375 103.75 16.1599998474121094
409.730010986328125 104.449996948242188 16.2700004577636719
409.57000732421875 105.330001831054688 17.1200008392333984
409.70001220703125 104.699996948242188 17.0799999237060547
410.839996337890625 104.400001525878906 9.34000015258789062
409.6199951171875 105.050003051757812 17.0599994659423828
409.790008544921875 104.510002136230469 16.2099990844726562
410.720001220703125 103.879997253417969 16.1900005340576172
409.769989013671875 104.510002136230469 17.1399993896484375
410.529998779296875 104.430000305175781 16.3299999237060547
407.649993896484375 102.980003356933594 16.8299999237060547
408.1099853515625 103.949996948242188 17.0300006866455078
408.149993896484375 103.94000244140625 16.2099990844726562
408.44000244140625 102.830001831054688 16.0400009155273438
408.910003662109375 101.139999389648438 15.6700000762939453
409.45001220703125 98.910003662109375 15.4600000381469727
409.32000732421875 99.5400009155273438 15.4799995422363281
408.760009765625 101.660003662109375 15.7200002670288086
409.19000244140625 100.069999694824219 15.6099996566772461
409.019989013671875 100.589996337890625 15.619999885559082
408.290008544921875 103.389999389648438 16.0699996948242188
408.6300048828125 104.370002746582031 16.2399997711181641
409.19000244140625 104.169998168945312 17.2700004577636719
409.230010986328125 104.209999084472656 16.3700008392333984
409.3599853515625 103.660003662109375 16.9699993133544922
410.1400146484375 100.839996337890625 15.7100000381469727
410.269989013671875 100.319999694824219 15.6099996566772461
408.579986572265625 102.25 15.8599996566772461
409.980010986328125 101.379997253417969 15.7899999618530273
409.670013427734375 102.519996643066406 16.0100002288818359
408.910003662109375 105.30999755859375 17.0900001525878906
409.510009765625 103.040000915527344 17.0699996948242188
409.529998779296875 103.050003051757812 16.1700000762939453
409.829986572265625 101.889999389648438 15.8999996185302734
409.54998779296875 104.389999389648438 7.82999992370605469
409.510009765625 104.379997253417969 5.76999998092651367
409.959991455078125 100.610000610351562 15.8299999237060547
409.32000732421875 103.260002136230469 17.0200004577636719
410.1199951171875 100 15.6899995803833008
408.850006103515625 105.089996337890625 16.9599990844726562
409.149993896484375 104 16.4699993133544922
408.769989013671875 103.019996643066406 16.8600006103515625
408.45001220703125 104.379997253417969 16.3099994659423828
410.709991455078125 103 15.869999885559082
410.29998779296875 104.629997253417969 16.3700008392333984
410.54998779296875 103.510002136230469 15.9700002670288086
409.510009765625 105.379997253417969 17.3500003814697266
410.989990234375 101.889999389648438 15.7700004577636719
409.660003662109375 104.830001831054688 17.0799999237060547
410.410003662109375 104.080001831054688 16.1200008392333984
410.850006103515625 102.410003662109375 15.7899999618530273
409.75 104.470001220703125 16.2099990844726562
407.54998779296875 102.959999084472656 16.7600002288818359
