ply
format ascii 1.0
element vertex 283
property float x
property float y
property float z
end_header
118.139999389648438 99.5999984741210938 25.9200000762939453
117.900001525878906 100.839996337890625 25.6399993896484375
117.870002746582031 101.569999694824219 25.1200008392333984
118.599998474121094 103.400001525878906 30.3700008392333984
118.75 103.30999755859375 28.3299999237060547
117.889999389648438 103.599998474121094 30.5200004577636719
118.699996948242188 104.110000610351562 29.5599994659423828
118.69000244140625 104.05999755859375 24.6900005340576172
118.639999389648438 104.099998474121094 27.9699993133544922
118.930000305175781 104.769996643066406 30.2199993133544922
118.569999694824219 104.849998474121094 29.4799995422363281
119.069999694824219 104.720001220703125 28.3299999237060547
118.720001220703125 105.430000305175781 30.0400009155273438
117.779998779296875 99.2300033569335938 25.7399997711181641
118.069999694824219 99.8300018310546875 25.7600002288818359
118.069999694824219 101.319999694824219 25.3700008392333984
118.730003356933594 103.110000610351562 29.5799999237060547
116.930000305175781 103.529998779296875 30.5200004577636719
117.510002136230469 103.430000305175781 30.4899997711181641
118.889999389648438 103.089996337890625 28.4799995422363281
118.489997863769531 103.949996948242188 29.4899997711181641
119.169998168945312 103.790000915527344 28.3799991607666016
119.050003051757812 103.879997253417969 20.2900009155273438
118.959999084472656 103.800003051757812 30.25
117.650001525878906 104.180000305175781 26.7800006866455078
118.879997253417969 104.510002136230469 28.0799999237060547
119.120002746582031 104.430000305175781 30.5799999237060547
118.660003662109375 104.569999694824219 29.6000003814697266
119.069999694824219 105.069999694824219 28.3400001525878906
118.290000915527344 105.25 30.3199996948242188
118.849998474121094 105.089996337890625 30.2999992370605469
117.69000244140625 105.370002746582031 30.3700008392333984
118.930000305175781 105.089996337890625 29.5900001525878906
119.180000305175781 105.769996643066406 28.3099994659423828
117.660003662109375 98.8799972534179688 25.75
118.290000915527344 99.3300018310546875 25.7000007629394531
117.720001220703125 99.470001220703125 25.7900009155273438
117.769996643066406 100.129997253417969 25.7900009155273438
118.830001831054688 103.180000305175781 28.3899993896484375
118.029998779296875 103.410003662109375 30.4400005340576172
118.580001831054688 103.25 30.2600002288818359
117.449996948242188 103.529998779296875 30.4300003051757812
119.339996337890625 103.620002746582031 28.2399997711181641
118.349998474121094 103.889999389648438 29.5300006866455078
117.389999389648438 104.080001831054688 26.8799991607666016
119.660003662109375 103.599998474121094 30.3400001525878906
118.800003051757812 103.760002136230469 28.5200004577636719
119.139999389648438 104.30999755859375 22.25
119.339996337890625 104.370002746582031 30.7399997711181641
118.959999084472656 104.44000244140625 28.4500007629394531
119.050003051757812 104.400001525878906 25.7000007629394531
118.650001525878906 104.540000915527344 30.2700004577636719
119.879997253417969 104.220001220703125 26.7399997711181641
118.989997863769531 105.209999084472656 28.4200000762939453
118.69000244140625 105.30999755859375 30.2800006866455078
117.980003356933594 99.089996337890625 25.7700004577636719
118.870002746582031 103.040000915527344 28.4099998474121094
118.660003662109375 103.05999755859375 29.5
118.680000305175781 103.650001525878906 29.5799999237060547
119.069999694824219 104.239997863769531 27.4899997711181641
119.120002746582031 104.260002136230469 26.1399993896484375
119.209999084472656 104.30999755859375 21.5400009155273438
119.199996948242188 104.290000915527344 20.0599994659423828
119.160003662109375 104.290000915527344 23.0900001525878906
119.150001525878906 104.349998474121094 18.5900001525878906
119.160003662109375 104.25 24.6499996185302734
118.919998168945312 104.230003356933594 30.3700008392333984
119.040000915527344 104.260002136230469 28.8999996185302734
119.290000915527344 104.900001525878906 28.2000007629394531
119.339996337890625 105.569999694824219 28.3099994659423828
118.169998168945312 99.0100021362304688 25.7999992370605469
117.959999084472656 99.6699981689453125 25.8099994659423828
117.80999755859375 100.300003051757812 25.6900005340576172
117.910003662109375 101.019996643066406 25.4200000762939453
117.959999084472656 101.790000915527344 24.8899993896484375
118.870002746582031 102.69000244140625 22.25
118.900001525878906 103.349998474121094 20.2700004577636719
118.459999084472656 103.129997253417969 29.4099998474121094
118.730003356933594 103.169998168945312 30.3199996948242188
118.919998168945312 103.230003356933594 28.2900009155273438
118.889999389648438 104.099998474121094 18.4699993133544922
118.980003356933594 104.050003051757812 24.8400001525878906
118.910003662109375 104.029998779296875 23.1800003051757812
118.860000610351562 103.970001220703125 28.3299999237060547
118.849998474121094 104.040000915527344 21.5900001525878906
118.430000305175781 103.819999694824219 29.3099994659423828
118.720001220703125 103.910003662109375 30.2900009155273438
118.860000610351562 103.989997863769531 26.5699996948242188
118.839996337890625 104.080001831054688 20.0699996948242188
118.730003356933594 104.720001220703125 29.5499992370605469
118.720001220703125 104.709999084472656 28.0599994659423828
118.629997253417969 105.370002746582031 29.4400005340576172
119.120002746582031 105.480003356933594 28.3099994659423828
117.849998474121094 98.779998779296875 25.7800006866455078
118.120002746582031 99.4800033569335938 25.7900009155273438
117.569999694824219 99.339996337890625 25.7399997711181641
118.080001831054688 100.709999084472656 25.6299991607666016
118.779998779296875 103.019996643066406 29.5400009155273438
118.800003051757812 102.849998474121094 20.2600002288818359
118.930000305175781 103.040000915527344 28.3099994659423828
119.010002136230469 103.580001831054688 20.2900009155273438
119.110000610351562 103.730003356933594 28.3400001525878906
117.75 103.410003662109375 30.4899997711181641
118.300003051757812 103.589996337890625 30.5900001525878906
118.879997253417969 103.69000244140625 30.2199993133544922
119.139999389648438 104.580001831054688 30.5699996948242188
117.94000244140625 104.279998779296875 30.7800006866455078
117.839996337890625 104.209999084472656 26.7900009155273438
118.849998474121094 104.449996948242188 28.0400009155273438
118.650001525878906 104.419998168945312 29.4899997711181641
118.510002136230469 104.389999389648438 30.6000003814697266
119.410003662109375 105.360000610351562 30.25
118.879997253417969 105.220001220703125 30.2600002288818359
119.139999389648438 105.25 28.3899993896484375
118.110000610351562 99.0699996948242188 25.7800006866455078
118.160003662109375 99.69000244140625 25.7600002288818359
118.150001525878906 100.430000305175781 25.6900005340576172
118.120002746582031 101.050003051757812 25.4799995422363281
118.80999755859375 103.25 29.5400009155273438
119.55999755859375 103.389999389648438 30.3799991607666016
118.669998168945312 103.199996948242188 28.5499992370605469
118.269996643066406 103.099998474121094 29.4699993133544922
119.230003356933594 103.339996337890625 28.2399997711181641
120.120002746582031 103.529998779296875 30.3799991607666016
118.709999084472656 103.910003662109375 28.5900001525878906
119.5 104.110000610351562 26.7800006866455078
118.870002746582031 103.94000244140625 29.5599994659423828
117.269996643066406 103.550003051757812 30.4699993133544922
119.220001220703125 104.169998168945312 17.7199993133544922
118.919998168945312 104 26.7000007629394531
119.209999084472656 104.040000915527344 28.2800006866455078
117.290000915527344 104.19000244140625 26.8199996948242188
118.839996337890625 104.550003051757812 29.6599998474121094
117.919998168945312 104.319999694824219 30.7800006866455078
119.180000305175781 104.660003662109375 28.3199996948242188
118.430000305175781 104.410003662109375 30.7399997711181641
119.349998474121094 105.349998474121094 28.4099998474121094
118.910003662109375 105.220001220703125 29.5100002288818359
119.629997253417969 105.360000610351562 30.2299995422363281
119.050003051757812 105.209999084472656 30.3700008392333984
118.05999755859375 99.1399993896484375 25.7800006866455078
117.839996337890625 99.8600006103515625 25.8799991607666016
118.199996948242188 100.550003051757812 25.7000007629394531
117.949996948242188 101.089996337890625 25.5100002288818359
118.669998168945312 103.25 28.6100006103515625
119.230003356933594 103.389999389648438 28.1900005340576172
118.930000305175781 103.959999084472656 29.4799995422363281
118.660003662109375 103.94000244140625 30.3799991607666016
119.080001831054688 104 28.3700008392333984
119.129997253417969 104.589996337890625 19.7099990844726562
119.110000610351562 104.589996337890625 22.8799991607666016
119.080001831054688 104.550003051757812 18.1299991607666016
119.160003662109375 104.620002746582031 21.3199996948242188
118.839996337890625 105.419998168945312 28.6499996185302734
118.860000610351562 105.410003662109375 30.1499996185302734
119.330001831054688 105.5 28.3799991607666016
119.069999694824219 102.980003356933594 28.3400001525878906
118.080001831054688 99.1100006103515625 25.7999992370605469
119.239997863769531 104.150001525878906 17.8799991607666016
119.44000244140625 104.290000915527344 30.6800003051757812
119.239997863769531 103.599998474121094 28.3400001525878906
118.970001220703125 105.330001831054688 29.5100002288818359
118.910003662109375 104.910003662109375 30.2199993133544922
118.769996643066406 104.319999694824219 30.3199996948242188
118.629997253417969 103.760002136230469 30.1900005340576172
118.430000305175781 102.970001220703125 29.5900001525878906
119.040000915527344 105.629997253417969 28.3500003814697266
118.819999694824219 104.730003356933594 29.5699996948242188
117.769996643066406 100.610000610351562 25.75
117.910003662109375 101.19000244140625 25.4699993133544922
118.019996643066406 101.629997253417969 25.1100006103515625
118.25 105.169998168945312 30.3400001525878906
117.790000915527344 103.44000244140625 30.4899997711181641
117.169998168945312 103.459999084472656 30.4699993133544922
117.800003051757812 99.0400009155273438 25.7199993133544922
117.279998779296875 105.25 30.3700008392333984
117.480003356933594 103.360000610351562 30.4899997711181641
117.75 104.470001220703125 30.8500003814697266
118.639999389648438 105.410003662109375 30.3099994659423828
118.339996337890625 104.330001831054688 30.8400001525878906
117.94000244140625 99.6100006103515625 25.8099994659423828
118.050003051757812 100.209999084472656 25.7700004577636719
118.709999084472656 102.910003662109375 29.5900001525878906
118.970001220703125 103.980003356933594 30.3099994659423828
118.900001525878906 103.410003662109375 20.2399997711181641
119.230003356933594 105.040000915527344 28.3500003814697266
118.989997863769531 103.970001220703125 28.3099994659423828
118.819999694824219 103.449996948242188 28.4200000762939453
119 103.959999084472656 26.8199996948242188
119.379997253417969 105.620002746582031 28.2800006866455078
119.139999389648438 104.550003051757812 28.2900009155273438
119 103.959999084472656 24.75
118.839996337890625 103.449996948242188 30.3700008392333984
119.769996643066406 104.349998474121094 30.6900005340576172
119.25 104.029998779296875 28.3500003814697266
119.120002746582031 103.419998168945312 30.4500007629394531
119.550003051757812 105.230003356933594 30.3299999237060547
119.089996337890625 103.410003662109375 28.3199996948242188
118.970001220703125 102.839996337890625 28.2700004577636719
118.919998168945312 102.709999084472656 22.3799991607666016
118.05999755859375 99.2900009155273438 25.7900009155273438
117.919998168945312 98.7399978637695312 25.6700000762939453
118.790000915527344 104.919998168945312 30.2199993133544922
118.540000915527344 103.949996948242188 29.3999996185302734
118.089996337890625 102.029998779296875 19.4500007629394531
118.680000305175781 104.489997863769531 29.6000003814697266
118.620002746582031 104.300003051757812 30.3500003814697266
118.05999755859375 104.349998474121094 30.7999992370605469
118.849998474121094 104.379997253417969 17.7099990844726562
117.910003662109375 99.3300018310546875 25.7600002288818359
118.089996337890625 101.19000244140625 25.4500007629394531
117.970001220703125 101.650001525878906 25.0400009155273438
117.44000244140625 104.529998779296875 30.8199996948242188
118.470001220703125 103.089996337890625 29.4899997711181641
117.970001220703125 105.150001525878906 30.3500003814697266
118.470001220703125 103.400001525878906 30.5400009155273438
119.099998474121094 103.389999389648438 30.4799995422363281
118.669998168945312 105.180000305175781 30.3099994659423828
118.94000244140625 103.970001220703125 30.3400001525878906
118.550003051757812 105.459999084472656 29.4300003051757812
118.80999755859375 104.459999084472656 30.1100006103515625
119.010002136230469 103.410003662109375 28.3099994659423828
118.80999755859375 104.150001525878906 26.7800006866455078
119.069999694824219 104.489997863769531 19.4300003051757812
119.120002746582031 104.449996948242188 21.4400005340576172
119.870002746582031 105.269996643066406 30.2000007629394531
120.029998779296875 104.269996643066406 26.6399993896484375
119.290000915527344 104.730003356933594 28.3899993896484375
119.180000305175781 105.30999755859375 28.3099994659423828
119.349998474121094 104.269996643066406 26.75
119.25 105.339996337890625 30.3299999237060547
119.19000244140625 104.44000244140625 23.3999996185302734
117.569999694824219 99.0199966430664062 25.7000007629394531
118.029998779296875 99.2900009155273438 25.7800006866455078
118.089996337890625 101.830001831054688 24.7600002288818359
117.760002136230469 100.360000610351562 25.7000007629394531
117.900001525878906 99.779998779296875 25.7600002288818359
117.540000915527344 104.010002136230469 24.6900005340576172
117.449996948242188 103.5 30.4599990844726562
117.739997863769531 104.400001525878906 30.7199993133544922
118.360000610351562 104.069999694824219 29.4099998474121094
118.589996337890625 102.980003356933594 29.5499992370605469
118.819999694824219 103.5 20.2099990844726562
118.050003051757812 105.180000305175781 30.3099994659423828
118.410003662109375 103.55999755859375 30.4400005340576172
118.970001220703125 102.970001220703125 20.2299995422363281
118.459999084472656 104.069999694824219 26.7700004577636719
118.75 104.349998474121094 30.3299999237060547
118.879997253417969 103.819999694824219 30.3500003814697266
119.110000610351562 103.25 28.3099994659423828
118.949996948242188 103.80999755859375 28.3400001525878906
118.650001525878906 104.919998168945312 30.1399993896484375
118.529998779296875 105.459999084472656 29.4500007629394531
119.220001220703125 105.220001220703125 30.3400001525878906
119.269996643066406 105.199996948242188 28.3899993896484375
119.629997253417969 104.110000610351562 26.7399997711181641
119.150001525878906 105.75 28.3099994659423828
119.69000244140625 104.080001831054688 24.4599990844726562
119.629997253417969 103.55999755859375 30.2900009155273438
120.25 105.290000915527344 30.1200008392333984
117.790000915527344 99.9000015258789062 25.8299999237060547
117.959999084472656 99.3799972534179688 25.7999992370605469
118.069999694824219 98.779998779296875 25.6700000762939453
117.510002136230469 104.339996337890625 30.6900005340576172
118.400001525878906 104.029998779296875 29.4099998474121094
118.529998779296875 103.709999084472656 30.4599990844726562
118.580001831054688 103.349998474121094 29.6399993896484375
118.650001525878906 103.099998474121094 28.5599994659423828
119 104.209999084472656 25.9300003051757812
119.279998779296875 103.480003356933594 30.4899997711181641
118.970001220703125 104.150001525878906 21.9300003051757812
119 104.089996337890625 24.2299995422363281
118.970001220703125 104.709999084472656 28.3899993896484375
119.080001831054688 104.099998474121094 28.25
118.900001525878906 104.040000915527344 17.9099998474121094
118.94000244140625 104.870002746582031 29.6399993896484375
118.949996948242188 104.019996643066406 19.9599990844726562
118.75 105.540000915527344 29.5100002288818359
118.860000610351562 105.300003051757812 30.3400001525878906
119.050003051757812 104.30999755859375 29.7199993133544922
119.220001220703125 103.540000915527344 28.2800006866455078
119.720001220703125 104.370002746582031 30.6100006103515625
119.360000610351562 105.610000610351562 28.3799991607666016
