ply
format ascii 1.0
element vertex 234
property float x
property float y
property float z
end_header
390.029998779296875 99.5400009155273438 12.6999998092651367
390.3599853515625 100.209999084472656 12.6899995803833008
390.290008544921875 101.610000610351562 6.05999994277954102
390.17999267578125 101.629997253417969 4.55000019073486328
388.850006103515625 103.44000244140625 8.53999996185302734
389.1099853515625 103.379997253417969 7.76000022888183594
388.350006103515625 103.5 13.9700002670288086
389.040008544921875 103.400001525878906 5.73000001907348633
388.92999267578125 103.360000610351562 14.130000114440918
387.69000244140625 103.650001525878906 13.9799995422363281
388.79998779296875 103.379997253417969 12.5100002288818359
389.209991455078125 103.889999389648438 16.1100006103515625
388.989990234375 103.319999694824219 16.0499992370605469
387.730010986328125 102.910003662109375 14.8500003814697266
388.350006103515625 102.75 14.7399997711181641
388.579986572265625 102.660003662109375 16.0499992370605469
387.8800048828125 104.169998168945312 16.25
388.980010986328125 101.830001831054688 16.2199993133544922
387.989990234375 101.959999084472656 16.1100006103515625
388.519989013671875 101.779998779296875 16.2299995422363281
389.1099853515625 103.040000915527344 14.9600000381469727
388.019989013671875 102.610000610351562 16.0599994659423828
388.489990234375 103.169998168945312 14.9200000762939453
389.029998779296875 103.029998779296875 16.0599994659423828
389.1199951171875 102.349998474121094 15.9899997711181641
389.709991455078125 103.430000305175781 13.9899997711181641
388.55999755859375 103.739997863769531 14.0299997329711914
389.05999755859375 103.610000610351562 16.0900001525878906
389.04998779296875 104.30999755859375 16.2600002288818359
387.5 102.739997863769531 14.8599996566772461
387.480010986328125 103.44000244140625 14.130000114440918
390.1099853515625 100.699996948242188 12.3599996566772461
390.290008544921875 101.510002136230469 5.88000011444091797
389.149993896484375 103.05999755859375 12.3900003433227539
388.55999755859375 103.180000305175781 14.9099998474121094
388.989990234375 102.410003662109375 15.9200000762939453
389.20001220703125 103.019996643066406 14.9399995803833008
389.1099853515625 104.480003356933594 16.2099990844726562
387.739990234375 103.389999389648438 14.0600004196166992
388.80999755859375 103.050003051757812 16.1299991607666016
388.480010986328125 101.830001831054688 16.1900005340576172
390.80999755859375 101.069999694824219 5.17000007629394531
390.029998779296875 101.269996643066406 6.48999977111816406
390.32000732421875 101.19000244140625 5.48999977111816406
391.029998779296875 101.580001831054688 5.15999984741210938
390.19000244140625 101.839996337890625 6.3600001335144043
390.420013427734375 101.739997863769531 5.40999984741210938
388.69000244140625 101.769996643066406 16.2399997711181641
389.1300048828125 102.919998168945312 14.9300003051757812
389.149993896484375 103.680000305175781 15.9300003051757812
388.730010986328125 102.300003051757812 16.2199993133544922
389 102.970001220703125 15.9499998092651367
389.839996337890625 98.8899993896484375 12.630000114440918
390.1099853515625 101.620002746582031 5.69999980926513672
388.760009765625 103.389999389648438 9.96000003814697266
388.94000244140625 103.370002746582031 5.48999977111816406
388.07000732421875 103.260002136230469 13.9799995422363281
388.670013427734375 103.419998168945312 13.9700002670288086
388.970001220703125 102.860000610351562 15.0699996948242188
387.75 103.19000244140625 14.9799995422363281
388.67999267578125 103.449996948242188 16.0200004577636719
388 102.629997253417969 16.1399993896484375
388.70001220703125 102.80999755859375 15.9399995803833008
388.420013427734375 102.709999084472656 14.7700004577636719
389.6300048828125 103.029998779296875 15.0399999618530273
389.04998779296875 104.220001220703125 16.1800003051757812
388.67999267578125 102.169998168945312 15.9600000381469727
387.420013427734375 101.849998474121094 16.0699996948242188
390.329986572265625 99.2699966430664062 12.7299995422363281
390.269989013671875 99.8000030517578125 12.6899995803833008
390.329986572265625 100.480003356933594 12.5699996948242188
390.260009765625 101.169998168945312 12.0699996948242188
390.1400146484375 104.410003662109375 16.2199993133544922
389.579986572265625 104.290000915527344 16.2399997711181641
389 104.160003662109375 16.1000003814697266
389.089996337890625 103.470001220703125 16.0400009155273438
388 103.25 14.9600000381469727
389 102.680000305175781 16.1100006103515625
387.420013427734375 103.069999694824219 14.8999996185302734
388.6199951171875 103.379997253417969 14
388.42999267578125 102.569999694824219 16.2099990844726562
389.20001220703125 103.529998779296875 14.0100002288818359
388.970001220703125 102.019996643066406 16.0200004577636719
387.850006103515625 101.730003356933594 16.1599998474121094
388.420013427734375 101.879997253417969 16.25
388.489990234375 102.610000610351562 14.8599996566772461
390.010009765625 99.25 12.7399997711181641
390.100006103515625 100.580001831054688 12.5
390.260009765625 101.199996948242188 6.30000019073486328
390.3900146484375 101.94000244140625 5.3899998664855957
389.170013427734375 104.300003051757812 16.0699996948242188
388.290008544921875 103.319999694824219 14.0600004196166992
389.3900146484375 102.970001220703125 15.0200004577636719
388.760009765625 103.470001220703125 16.0100002288818359
388.829986572265625 101.699996948242188 16.1100006103515625
389.05999755859375 102.889999389648438 15.880000114440918
388.6099853515625 102.269996643066406 16.0499992370605469
388.910003662109375 103.489997863769531 13.9300003051757812
390.1099853515625 99.1299972534179688 12.8299999237060547
390.160003662109375 99.80999755859375 12.6700000762939453
390.1400146484375 100.599998474121094 12.5100002288818359
390.29998779296875 101.430000305175781 5.80999994277954102
390.5 101.470001220703125 6.21000003814697266
390.660003662109375 101.540000915527344 5.13000011444091797
390.30999755859375 102.05999755859375 5.61999988555908203
390.04998779296875 101.989997863769531 6.42999982833862305
389.1400146484375 103.150001525878906 10.9399995803833008
389.25 103.220001220703125 8.32999992370605469
389.1099853515625 103.129997253417969 12.3400001525878906
389.30999755859375 103.260002136230469 7.03000020980834961
389.209991455078125 103.19000244140625 9.75
387.920013427734375 103.5 13.9600000381469727
388.69000244140625 103.699996948242188 13.9600000381469727
389.04998779296875 103.75 16.0699996948242188
389.17999267578125 104.379997253417969 16.1000003814697266
388.920013427734375 103.029998779296875 16.1000003814697266
388.790008544921875 102.25 16
388.989990234375 103.069999694824219 14.880000114440918
388.70001220703125 103.360000610351562 11.0900001525878906
389.269989013671875 103.300003051757812 7.6399998664855957
389.290008544921875 103.339996337890625 5.69999980926513672
390.230010986328125 101.300003051757812 11.9600000381469727
390.079986572265625 100.790000915527344 12.4200000762939453
390.19000244140625 101.650001525878906 4.67999982833862305
390.279998779296875 99.2600021362304688 12.6899995803833008
389.350006103515625 103.290000915527344 14
389.30999755859375 102.949996948242188 15
387.45001220703125 103.319999694824219 14.3000001907348633
389.010009765625 104.239997863769531 16.2000007629394531
388.70001220703125 103.019996643066406 16.1499996185302734
388.54998779296875 102.669998168945312 14.9300003051757812
388.720001220703125 103.319999694824219 15.2299995422363281
388.760009765625 103.510002136230469 13.7799997329711914
388.100006103515625 103.080001831054688 14.9399995803833008
386.399993896484375 101.900001525878906 16.1299991607666016
388.19000244140625 103.400001525878906 13.9700002670288086
390.260009765625 100.05999755859375 12.6599998474121094
389.959991455078125 99 12.7100000381469727
390.100006103515625 99.4800033569335938 12.6899995803833008
388.04998779296875 104.330001831054688 16.2199993133544922
387.829986572265625 103.260002136230469 13.9700002670288086
387.769989013671875 103.260002136230469 14.9300003051757812
387.649993896484375 102.680000305175781 14.880000114440918
388.489990234375 103.44000244140625 13.9700002670288086
389.079986572265625 103.150001525878906 15.0100002288818359
387.959991455078125 103.779998779296875 14
388.92999267578125 102.650001525878906 16.1200008392333984
389.230010986328125 103.69000244140625 16.0499992370605469
388.829986572265625 102.050003051757812 16.0200004577636719
389.32000732421875 104.230003356933594 16.2600002288818359
388.350006103515625 102.839996337890625 14.8599996566772461
389.100006103515625 103.150001525878906 16.0200004577636719
386.839996337890625 101.819999694824219 16.1000003814697266
389.20001220703125 103.099998474121094 8.64000034332275391
389.1300048828125 102.80999755859375 7.59000015258789062
389.19000244140625 103.120002746582031 6.40999984741210938
389.029998779296875 102.660003662109375 12.4399995803833008
390.3599853515625 101.629997253417969 5.48999977111816406
390.3900146484375 99.1800003051757812 12.6800003051757812
386.94000244140625 102.599998474121094 16.0799999237060547
387.839996337890625 103.099998474121094 14.9499998092651367
388.209991455078125 101.849998474121094 16.1800003051757812
388.579986572265625 103.180000305175781 13.7600002288818359
389.20001220703125 103.319999694824219 16.0799999237060547
388.5 102.870002746582031 14.9200000762939453
388.70001220703125 103.650001525878906 14.0600004196166992
389.239990234375 103.349998474121094 13.9799995422363281
389.04998779296875 102.790000915527344 16.0900001525878906
389.1400146484375 103.05999755859375 15.0299997329711914
388.839996337890625 104.25 16.2199993133544922
387.899993896484375 103.419998168945312 13.9099998474121094
387.70001220703125 102.610000610351562 14.7899999618530273
388.920013427734375 102.180000305175781 15.9700002670288086
390.1400146484375 99.05999755859375 12.7399997711181641
389.980010986328125 99.6100006103515625 12.6400003433227539
388.899993896484375 103.400001525878906 8.86999988555908203
389.010009765625 103.389999389648438 11.0799999237060547
390.160003662109375 101.580001831054688 11.6000003814697266
390.29998779296875 101.110000610351562 12.1499996185302734
387.769989013671875 102.900001525878906 14.869999885559082
387.839996337890625 102.680000305175781 16.1700000762939453
388.470001220703125 102.870002746582031 14.9099998474121094
388.579986572265625 102.610000610351562 16.1000003814697266
387.6400146484375 103.260002136230469 14.1999998092651367
389.05999755859375 103.480003356933594 13.4399995803833008
388.339996337890625 103.290000915527344 14.1499996185302734
388.739990234375 101.959999084472656 16.1299991607666016
389.20001220703125 103.230003356933594 14.8599996566772461
389 104.230003356933594 16.1700000762939453
389.17999267578125 103.610000610351562 16.0300006866455078
389.92999267578125 100.089996337890625 12.619999885559082
390.05999755859375 99.5400009155273438 12.7100000381469727
390.20001220703125 98.9800033569335938 12.75
388.94000244140625 102.419998168945312 7.53999996185302734
388.529998779296875 102.449996948242188 16.2099990844726562
388.470001220703125 103 14.8999996185302734
389.160003662109375 102.80999755859375 14.9399995803833008
388.70001220703125 101.959999084472656 16.1000003814697266
388.3699951171875 103.55999755859375 13.9799995422363281
389.290008544921875 104.360000610351562 16.2199993133544922
389.649993896484375 103.230003356933594 13.9700002670288086
388.92999267578125 103.44000244140625 16.0300006866455078
389.029998779296875 103.400001525878906 14.0100002288818359
388.1099853515625 104.110000610351562 16.1800003051757812
387.6099853515625 103.779998779296875 13.9499998092651367
386.269989013671875 101.699996948242188 16.1399993896484375
387.69000244140625 103.150001525878906 14.9099998474121094
386.660003662109375 102.589996337890625 16.0599994659423828
389.959991455078125 104.180000305175781 16.1800003051757812
388.790008544921875 104.010002136230469 16.1100006103515625
387.3900146484375 101.900001525878906 16.0900001525878906
387.79998779296875 102.610000610351562 16.1499996185302734
388.19000244140625 102.900001525878906 10.7799997329711914
388.220001220703125 103.050003051757812 12.5299997329711914
388.8800048828125 102.800003051757812 12.5500001907348633
390.1400146484375 100.779998779296875 12.4200000762939453
390.3800048828125 101.739997863769531 5.34000015258789062
388.6099853515625 104.150001525878906 16.1900005340576172
388.910003662109375 103.040000915527344 15.9799995422363281
388.769989013671875 103.589996337890625 16.0900001525878906
388.95001220703125 102.720001220703125 15.0299997329711914
388.410003662109375 102.620002746582031 16.1599998474121094
389.019989013671875 102.480003356933594 15.9799995422363281
388.82000732421875 103.099998474121094 13.7799997329711914
388.290008544921875 102.930000305175781 14.9600000381469727
386.69000244140625 101.830001831054688 16.0699996948242188
390 104.160003662109375 16.2299995422363281
389.6099853515625 103.040000915527344 15.0200004577636719
389.239990234375 104.580001831054688 16.1900005340576172
387.220001220703125 102.69000244140625 16.1100006103515625
387.540008544921875 103.580001831054688 14.0299997329711914
387.790008544921875 102.760002136230469 14.6899995803833008
387.6300048828125 103.300003051757812 14.9600000381469727
388.040008544921875 101.760002136230469 16.0699996948242188
