ply
format ascii 1.0
element vertex 193
property float x
property float y
property float z
end_header
445.149993896484375 68.529998779296875 3.56999993324279785
445.089996337890625 68.5 5.57999992370605469
445.1400146484375 68.5 7.19999980926513672
445.1400146484375 68.4300003051757812 10.6599998474121094
445.1099853515625 68.470001220703125 8.93000030517578125
445.54998779296875 69.0400009155273438 17.0599994659423828
445.470001220703125 68.3000030517578125 17.0499992370605469
445.910003662109375 67.5500030517578125 17.1499996185302734
445.339996337890625 67.660003662109375 16.9599990844726562
445.1099853515625 69.9499969482421875 17.1299991607666016
446.67999267578125 68.9800033569335938 13.0799999237060547
442.019989013671875 67.55999755859375 17.1499996185302734
445.350006103515625 67.3899993896484375 17.0699996948242188
444.829986572265625 67.529998779296875 17.1299991607666016
444.089996337890625 68.25 17.1299991607666016
445.20001220703125 68.660003662109375 17.0699996948242188
445.769989013671875 67.8300018310546875 17.0400009155273438
442.910003662109375 69.9599990844726562 17.1800003051757812
446.220001220703125 69.8199996948242188 17.2000007629394531
445.6300048828125 69.9499969482421875 17.2399997711181641
445.329986572265625 68.5 17.0799999237060547
442.989990234375 68.3300018310546875 17.0799999237060547
446 67.5999984741210938 17.1499996185302734
445.100006103515625 69.8600006103515625 17.1900005340576172
445.42999267578125 68.69000244140625 13.4300003051757812
445.54998779296875 68.5500030517578125 3.50999999046325684
445.470001220703125 68.5699996948242188 6.46000003814697266
445.420013427734375 68.6399993896484375 9.22999954223632812
445.45001220703125 68.55999755859375 4.88000011444091797
445.44000244140625 68.5800018310546875 7.80000019073486328
445.42999267578125 68.6800003051757812 11.9499998092651367
445.589996337890625 69.339996337890625 16.9300003051757812
445.459991455078125 68.69000244140625 16.4500007629394531
445.5 67.3899993896484375 17.1200008392333984
445.100006103515625 68.529998779296875 3.6099998950958252
445.089996337890625 68.5800018310546875 7.21999979019165039
445.05999755859375 68.589996337890625 8.97000026702880859
445.100006103515625 68.660003662109375 12.2600002288818359
445.05999755859375 68.5400009155273438 5.53999996185302734
445.1099853515625 68.6699981689453125 14.1499996185302734
445.540008544921875 67.279998779296875 17.0300006866455078
445.279998779296875 69.470001220703125 16.9899997711181641
445.459991455078125 68.0699996948242188 16.9899997711181641
445.3599853515625 68.7699966430664062 17.1200008392333984
445.1300048828125 68.6999969482421875 15.8500003814697266
442.660003662109375 68.8899993896484375 13.0100002288818359
445.3699951171875 67.5 17.0699996948242188
443.019989013671875 68.2399978637695312 17.1200008392333984
445.589996337890625 68.2099990844726562 17.0799999237060547
442.779998779296875 67.5199966430664062 17.1599998474121094
446.75 69.8700027465820312 17.2199993133544922
444.25 69.970001220703125 17.1800003051757812
445.3599853515625 68.8000030517578125 17.0300006866455078
443.69000244140625 69.8199996948242188 17.1700000762939453
445.649993896484375 69.5500030517578125 17.0799999237060547
443.019989013671875 68.3199996948242188 17.1900005340576172
442.6300048828125 67.6399993896484375 17.1599998474121094
445.269989013671875 68.8499984741210938 17.1100006103515625
445.519989013671875 69.55999755859375 17.0900001525878906
445.290008544921875 67.6200027465820312 17.0499992370605469
442.040008544921875 67.470001220703125 17.0200004577636719
444.709991455078125 67.470001220703125 17.1800003051757812
445.04998779296875 68.2399978637695312 17.3299999237060547
445.649993896484375 68.3499984741210938 17.0100002288818359
445.529998779296875 68.3199996948242188 5.11999988555908203
445.57000732421875 68.3499984741210938 3.70000004768371582
445.540008544921875 68.3199996948242188 6.61999988555908203
445.399993896484375 68.8499984741210938 12.2200002670288086
445.3599853515625 68.8300018310546875 10.7700004577636719
445.54998779296875 68.8000030517578125 16.9200000762939453
445.6199951171875 68.160003662109375 17
445.45001220703125 68.7900009155273438 15.1899995803833008
445.579986572265625 69.5699996948242188 17.0599994659423828
445.660003662109375 67.6299972534179688 16.9300003051757812
445.5 68.6100006103515625 6.6399998664855957
445.519989013671875 68.69000244140625 4.84999990463256836
446.3900146484375 68.910003662109375 13.0699996948242188
445.260009765625 69.8000030517578125 17.2700004577636719
443.459991455078125 67.589996337890625 17.0900001525878906
443.6300048828125 68.2399978637695312 17.1800003051757812
444.290008544921875 68.2399978637695312 17.1700000762939453
445.67999267578125 68.7099990844726562 16.9699993133544922
445.3800048828125 67.5100021362304688 17.0900001525878906
445.5 68.0500030517578125 17.0799999237060547
442.660003662109375 67.3899993896484375 17.1200008392333984
443.290008544921875 69.8899993896484375 17.1399993896484375
445.209991455078125 68.7399978637695312 13.1099996566772461
445.290008544921875 69.4599990844726562 17.0699996948242188
445.029998779296875 68.3499984741210938 17.1499996185302734
445.67999267578125 68.6200027465820312 16.9799995422363281
445.459991455078125 70.0100021362304688 17.1100006103515625
446.239990234375 68.1699981689453125 17.1000003814697266
445.519989013671875 68.0500030517578125 17.0100002288818359
446.660003662109375 69.839996337890625 17.1900005340576172
445.410003662109375 67.470001220703125 17.0300006866455078
443.480010986328125 69.9499969482421875 17.1900005340576172
443.040008544921875 68.3300018310546875 17.1800003051757812
444.19000244140625 67.5199966430664062 17.1399993896484375
443.980010986328125 68.910003662109375 13.0399999618530273
445.44000244140625 68.4800033569335938 9.15999984741210938
445.42999267578125 68.5199966430664062 11.5299997329711914
445.45001220703125 68.410003662109375 4.76999998092651367
445.410003662109375 68.4300003051757812 7.03000020980834961
446.100006103515625 68.910003662109375 13
445.6300048828125 69.4499969482421875 17.0100002288818359
445.3900146484375 68.5500030517578125 13.75
445.45001220703125 68.8199996948242188 17.0400009155273438
445.329986572265625 68.25 17.0400009155273438
445.739990234375 69.94000244140625 17.3099994659423828
445.420013427734375 68.5699996948242188 15.9499998092651367
441.670013427734375 67.5800018310546875 17
445.709991455078125 67.30999755859375 16.9500007629394531
447.029998779296875 69.9499969482421875 17.1800003051757812
442.55999755859375 68.3600006103515625 17.1299991607666016
443.529998779296875 69.8499984741210938 17.1100006103515625
442.8900146484375 67.4800033569335938 17.1200008392333984
445.17999267578125 68.470001220703125 3.71000003814697266
445.260009765625 68.5199966430664062 8.89999961853027344
445.350006103515625 68.529998779296875 12.8000001907348633
445.29998779296875 68.5500030517578125 11.5299997329711914
445.279998779296875 68.4800033569335938 10.1899995803833008
445.230010986328125 68.470001220703125 6.19000005722045898
445.260009765625 68.44000244140625 7.57999992370605469
445.230010986328125 68.4499969482421875 4.92000007629394531
445.350006103515625 68.5400009155273438 14.2200002670288086
443.920013427734375 67.5800018310546875 17.1200008392333984
445.3900146484375 68.55999755859375 15.4300003051757812
445.3900146484375 68.4899978637695312 16.8400001525878906
445.149993896484375 67.5999984741210938 17.1599998474121094
445.5 69.0400009155273438 17.0499992370605469
445.149993896484375 68.75 10.1700000762939453
445.079986572265625 68.6999969482421875 7.96000003814697266
445.239990234375 68.8000030517578125 12.2399997711181641
447.25 70.0699996948242188 17.25
445.3900146484375 68.9800033569335938 16.8799991607666016
445.20001220703125 69.7399978637695312 17.1900005340576172
445.529998779296875 68.4800033569335938 17.0599994659423828
444.8699951171875 68.2300033569335938 17.2600002288818359
444.470001220703125 69.9599990844726562 17.1900005340576172
445.05999755859375 67.5699996948242188 17.1299991607666016
445.290008544921875 68.839996337890625 14.2600002288818359
444.04998779296875 68.2600021362304688 17.1800003051757812
445.6400146484375 67.8799972534179688 17.0100002288818359
442.220001220703125 67.5500030517578125 16.9899997711181641
443.540008544921875 68.7699966430664062 13.0699996948242188
443.07000732421875 67.4000015258789062 17.0499992370605469
443.489990234375 68.339996337890625 17.1200008392333984
444.709991455078125 68.3300018310546875 17.2900009155273438
443.040008544921875 69.9899978637695312 17.1900005340576172
445.209991455078125 69.220001220703125 16.9599990844726562
445.04998779296875 69.7900009155273438 17.2199993133544922
445.480010986328125 68.0999984741210938 17.0400009155273438
446.269989013671875 69.94000244140625 17.2399997711181641
444.230010986328125 67.5100021362304688 17.0900001525878906
445.3599853515625 68.660003662109375 17.0799999237060547
445.6199951171875 67.5500030517578125 16.9699993133544922
442.269989013671875 67.5800018310546875 17.0900001525878906
444.69000244140625 69.029998779296875 12.9899997711181641
445.339996337890625 68.4599990844726562 4.76000022888183594
445.3800048828125 68.4800033569335938 6.8600001335144043
445.3900146484375 68.529998779296875 9.14999961853027344
445.420013427734375 68.5999984741210938 11.2600002288818359
444.459991455078125 67.5100021362304688 17.1100006103515625
443.839996337890625 69.9000015258789062 17.1700000762939453
443.75 67.6299972534179688 17.1599998474121094
443.589996337890625 68.2099990844726562 17.1299991607666016
443.1300048828125 69.9499969482421875 17.1599998474121094
442.910003662109375 68.3499984741210938 17.2399997711181641
441.720001220703125 67.5500030517578125 17.0900001525878906
446.480010986328125 69.8600006103515625 17.1700000762939453
445.80999755859375 69.8600006103515625 17.25
445.339996337890625 69.5699996948242188 17.0499992370605469
445.220001220703125 70.089996337890625 17.3999996185302734
445.45001220703125 68.6399993896484375 13.3900003433227539
445.459991455078125 68.9300003051757812 17.0599994659423828
445.6199951171875 68.30999755859375 17.0900001525878906
445.529998779296875 68.4199981689453125 10.5799999237060547
445.579986572265625 68.5 6.42999982833862305
445.6300048828125 68.4300003051757812 4
445.589996337890625 68.470001220703125 5.17000007629394531
445.57000732421875 68.4899978637695312 9.19999980926513672
445.510009765625 68.4800033569335938 13.0200004577636719
445.510009765625 68.4599990844726562 11.8100004196166992
444.790008544921875 68.7399978637695312 13.0200004577636719
445 68.279998779296875 5.80000019073486328
442.329986572265625 68.3700027465820312 17.0799999237060547
443.019989013671875 68.1100006103515625 17.0599994659423828
445.100006103515625 69.8199996948242188 17.2800006866455078
445.459991455078125 68.5199966430664062 14.2600002288818359
445.260009765625 69.1699981689453125 17.0699996948242188
445.459991455078125 68.4599990844726562 17.0100002288818359
443.1199951171875 69.9000015258789062 17.1499996185302734
446.079986572265625 68.1100006103515625 17.1700000762939453
