ply
format ascii 1.0
element vertex 237
property float x
property float y
property float z
end_header
232.300003051757812 104.970001220703125 12.5799999237060547
232.360000610351562 105 13.9200000762939453
232.240005493164062 104.989997863769531 11.2399997711181641
232.220001220703125 103.739997863769531 20.8199996948242188
231.960006713867188 103.779998779296875 22.7299995422363281
232.07000732421875 104.400001525878906 20.75
230.029998779296875 104.870002746582031 17.7800006866455078
232.3699951171875 105.05999755859375 21.1800003051757812
232.350006103515625 105.099998474121094 22.6100006103515625
232.339996337890625 104.980003356933594 15.3199996948242188
232.330001831054688 105.05999755859375 18.2999992370605469
232.339996337890625 105.050003051757812 19.75
232.350006103515625 105.029998779296875 16.7099990844726562
232.149993896484375 106.330001831054688 16.0900001525878906
232.800003051757812 106.139999389648438 16.1100006103515625
232.5 105.680000305175781 21.7999992370605469
232.300003051757812 105.730003356933594 20.8199996948242188
232.139999389648438 105.800003051757812 22.5599994659423828
232.92999267578125 106.180000305175781 21.7399997711181641
232.460006713867188 105.160003662109375 14.1000003814697266
232.399993896484375 105.199996948242188 11.2600002288818359
231.960006713867188 103.739997863769531 20.8700008392333984
230.32000732421875 104.94000244140625 17.8299999237060547
232.039993286132812 104.470001220703125 20.8799991607666016
232.210006713867188 104.419998168945312 22.5599994659423828
232.589996337890625 105.080001831054688 16.4500007629394531
232.479995727539062 105.019996643066406 22.6499996185302734
232.30999755859375 105.089996337890625 20.7099990844726562
232.6300048828125 105.620002746582031 21.9400005340576172
232.92999267578125 105.599998474121094 15.0900001525878906
232.5 105.610000610351562 22.7099990844726562
232.32000732421875 105.709999084472656 20.7800006866455078
232.449996948242188 106.360000610351562 20.7999992370605469
232.800003051757812 106.25 21.8500003814697266
232.25 106.459999084472656 15.9700002670288086
232.520004272460938 106.410003662109375 17.8899993896484375
232.990005493164062 106.30999755859375 15.4399995803833008
232.710006713867188 106.370002746582031 16.9599990844726562
230.92999267578125 104.180000305175781 22.8899993896484375
231.8800048828125 103.879997253417969 20.8299999237060547
232.009994506835938 103.860000610351562 22.6499996185302734
232.529998779296875 104.410003662109375 21.8400001525878906
230.529998779296875 104.849998474121094 17.8299999237060547
230.32000732421875 104.989997863769531 23.0599994659423828
231.860000610351562 104.55999755859375 20.9200000762939453
232.42999267578125 105.029998779296875 22.7700004577636719
232.279998779296875 105.069999694824219 20.8400001525878906
232.389999389648438 105.739997863769531 20.8199996948242188
232.009994506835938 105.860000610351562 22.8600006103515625
232.490005493164062 105.699996948242188 22.5799999237060547
232.32000732421875 106.449996948242188 20.8199996948242188
232.600006103515625 106.319999694824219 17.1499996185302734
232.509994506835938 106.360000610351562 15.4700002670288086
232.07000732421875 104.209999084472656 22.6599998474121094
230.389999389648438 104.699996948242188 17.8899993896484375
232.6199951171875 104.69000244140625 19.2099990844726562
232.42999267578125 104.69000244140625 20.7199993133544922
232.479995727539062 104.669998168945312 22.4200000762939453
232.759994506835938 106.089996337890625 16.3199996948242188
232.80999755859375 106.040000915527344 21.8199996948242188
232.479995727539062 105.410003662109375 20.7199993133544922
232.889999389648438 105.260002136230469 21.8199996948242188
232.589996337890625 105.339996337890625 22.5499992370605469
232.3699951171875 105.080001831054688 13.5500001907348633
232.32000732421875 105.069999694824219 12.0900001525878906
232.270004272460938 105.099998474121094 10.75
232.360000610351562 105.029998779296875 15.1099996566772461
232.17999267578125 104.930000305175781 22.4500007629394531
232.339996337890625 104.989997863769531 19.4400005340576172
232.32000732421875 105.010002136230469 16.6399993896484375
232.279998779296875 105.010002136230469 18.0699996948242188
232.300003051757812 104.959999084472656 20.8400001525878906
232.30999755859375 104.290000915527344 22.7000007629394531
232.470001220703125 104.389999389648438 20.9200000762939453
232.57000732421875 105.709999084472656 22.7600002288818359
232.160003662109375 105.639999389648438 20.7000007629394531
232 103.680000305175781 20.7099990844726562
232.82000732421875 105.849998474121094 16.4599990844726562
232.710006713867188 105.860000610351562 15.3299999237060547
233.05999755859375 106.510002136230469 17.0200004577636719
232.699996948242188 106.349998474121094 21.9200000762939453
232.100006103515625 106.300003051757812 16.0100002288818359
232.039993286132812 104.180000305175781 22.6800003051757812
232.42999267578125 104.260002136230469 20.7999992370605469
231.3699951171875 104.019996643066406 22.8799991607666016
232.389999389648438 104.80999755859375 17.6599998474121094
232.460006713867188 104.790000915527344 14.5
232.509994506835938 104.959999084472656 22.9099998474121094
232.3699951171875 104.839996337890625 20.8700008392333984
229.589996337890625 104.180000305175781 22.8400001525878906
232.55999755859375 106.290000915527344 17.0799999237060547
232.360000610351562 106.300003051757812 20.8700008392333984
232.139999389648438 106.169998168945312 16.0699996948242188
232.94000244140625 106.360000610351562 15.4300003051757812
230.779998779296875 105.889999389648438 22.7399997711181641
229.57000732421875 104.930000305175781 23.1100006103515625
230.080001831054688 104.989997863769531 17.7600002288818359
232.800003051757812 105.739997863769531 21.8799991607666016
232.389999389648438 105.629997253417969 20.7999992370605469
232.759994506835938 106.379997253417969 21.8400001525878906
232.669998168945312 104.949996948242188 13.3400001525878906
232.259994506835938 104.080001831054688 22.7299995422363281
232.110000610351562 104.080001831054688 20.7600002288818359
229.729995727539062 104.739997863769531 19.3600006103515625
230.520004272460938 104.910003662109375 23.0799999237060547
232.25 105.349998474121094 22.6499996185302734
232.69000244140625 105.449996948242188 21.8500003814697266
232.1199951171875 105.330001831054688 20.8500003814697266
230.1300048828125 104.879997253417969 17.8199996948242188
231.42999267578125 104.569999694824219 19.4500007629394531
229.360000610351562 104.040000915527344 22.7299995422363281
232.089996337890625 104.75 20.8600006103515625
232.259994506835938 104.75 22.6399993896484375
232.539993286132812 104.849998474121094 18.8999996185302734
232.850006103515625 106.260002136230469 15.5500001907348633
232.75 106.120002746582031 21.8299999237060547
232.149993896484375 106.010002136230469 20.8999996185302734
232.720001220703125 104.879997253417969 21.8199996948242188
232.270004272460938 105.980003356933594 22.6900005340576172
231.639999389648438 105.819999694824219 22.8299999237060547
231.850006103515625 103.75 20.9500007629394531
232.710006713867188 105.139999389648438 13.9099998474121094
232.589996337890625 105.150001525878906 15.5699996948242188
232.960006713867188 105.30999755859375 21.7900009155273438
232.5 105.169998168945312 20.5799999237060547
232.55999755859375 105.220001220703125 22.3899993896484375
232.610000610351562 105.169998168945312 17.4300003051757812
232.520004272460938 105.169998168945312 18.9599990844726562
232.220001220703125 104.480003356933594 20.8099994659423828
232.6199951171875 104.620002746582031 21.8600006103515625
232.240005493164062 104.510002136230469 22.6299991607666016
232.770004272460938 105.930000305175781 21.8899993896484375
232.360000610351562 105.870002746582031 22.7199993133544922
232.800003051757812 105.069999694824219 13.0799999237060547
230.240005493164062 105.769996643066406 22.9400005340576172
229.94000244140625 104.769996643066406 19.4699993133544922
230.649993896484375 104.860000610351562 23.1399993896484375
230.5 104.599998474121094 18
232.399993896484375 106.339996337890625 16.0699996948242188
232.17999267578125 105.239997863769531 22.5900001525878906
232.029998779296875 104.720001220703125 20.8199996948242188
232.3800048828125 105.860000610351562 22.7800006866455078
232.32000732421875 105.870002746582031 20.7999992370605469
231.889999389648438 104.010002136230469 22.8099994659423828
232.800003051757812 104.980003356933594 15.0500001907348633
232.779998779296875 104.900001525878906 17.0499992370605469
232.6199951171875 104.980003356933594 22.9200000762939453
232.639999389648438 104.980003356933594 21.8400001525878906
232.490005493164062 104.419998168945312 20.8899993896484375
232.350006103515625 103.930000305175781 20.7900009155273438
232.509994506835938 104.44000244140625 21.8600006103515625
232.3699951171875 103.910003662109375 21.8199996948242188
232.770004272460938 105.540000915527344 21.8700008392333984
232.910003662109375 106.120002746582031 21.7800006866455078
231.899993896484375 104.949996948242188 23.0499992370605469
232.169998168945312 106 20.8899993896484375
231.479995727539062 105.970001220703125 22.8199996948242188
230.729995727539062 104.739997863769531 17.8299999237060547
230.94000244140625 105.800003051757812 22.7099990844726562
230.5 104.160003662109375 22.8299999237060547
230.050003051757812 105.069999694824219 23.0699996948242188
232.649993896484375 104.819999694824219 12.3000001907348633
230.710006713867188 104.839996337890625 17.8799991607666016
230.490005493164062 104.040000915527344 22.8500003814697266
230.92999267578125 105.779998779296875 22.7999992370605469
231.460006713867188 105.800003051757812 22.75
232.240005493164062 106.139999389648438 20.8999996185302734
232.289993286132812 106.360000610351562 16.0900001525878906
231.949996948242188 104.949996948242188 23.0400009155273438
232.639999389648438 104.849998474121094 22.9300003051757812
232.509994506835938 104.25 20.7800006866455078
232.6199951171875 104.709999084472656 19.1800003051757812
232.699996948242188 105.19000244140625 21.8600006103515625
232.57000732421875 104.569999694824219 21.7700004577636719
232.660003662109375 104.860000610351562 14.369999885559082
232.6199951171875 104.860000610351562 16.5400009155273438
232.889999389648438 105.790000915527344 21.8400001525878906
232.539993286132812 105.180000305175781 10.3000001907348633
232.610000610351562 105.209999084472656 12.4099998474121094
230.029998779296875 104.069999694824219 22.8099994659423828
232.020004272460938 106.25 20.7999992370605469
232.30999755859375 105.120002746582031 20.7700004577636719
232.5 104.459999084472656 20.7999992370605469
232.449996948242188 104.989997863769531 22.5900001525878906
232.279998779296875 105.669998168945312 22.6800003051757812
230.919998168945312 104.739997863769531 19.4599990844726562
232.169998168945312 105.680000305175781 20.8199996948242188
230.30999755859375 104.720001220703125 17.8600006103515625
230.410003662109375 104.970001220703125 23.1200008392333984
231.889999389648438 104.199996948242188 22.7000007629394531
231.949996948242188 103.629997253417969 20.8899993896484375
231.69000244140625 104.919998168945312 23.1200008392333984
232.8699951171875 105.839996337890625 22.7800006866455078
232.770004272460938 106.160003662109375 21.8099994659423828
232.899993896484375 105.589996337890625 21.8899993896484375
232.550003051757812 106.040000915527344 15.3000001907348633
232.710006713867188 105.120002746582031 14.380000114440918
232.800003051757812 106.129997253417969 21.8199996948242188
232.410003662109375 106.379997253417969 17.7099990844726562
232.30999755859375 105.839996337890625 22.7099990844726562
232.490005493164062 105.25 21.9799995422363281
232.410003662109375 106.349998474121094 17.0100002288818359
232.639999389648438 104.669998168945312 21.8199996948242188
232.279998779296875 106.360000610351562 20.8500003814697266
232.42999267578125 105.830001831054688 20.7800006866455078
232.350006103515625 103.80999755859375 20.7700004577636719
232.19000244140625 104.330001831054688 20.7700004577636719
232.1199951171875 104.330001831054688 22.5900001525878906
231.699996948242188 106 22.7900009155273438
232.30999755859375 103.790000915527344 21.7900009155273438
232 104.889999389648438 23.1100006103515625
230.839996337890625 104.760002136230469 19.4400005340576172
230.42999267578125 105.910003662109375 22.8099994659423828
230.089996337890625 105.010002136230469 22.9899997711181641
230.30999755859375 104.980003356933594 17.8700008392333984
229.759994506835938 104.169998168945312 22.7999992370605469
232.80999755859375 104.919998168945312 10.5200004577636719
232.830001831054688 104.970001220703125 12.5699996948242188
229.699996948242188 104.959999084472656 23.0100002288818359
230.509994506835938 104.099998474121094 22.7700004577636719
230.19000244140625 104.910003662109375 17.8600006103515625
230.039993286132812 105.94000244140625 22.75
230.990005493164062 104.910003662109375 22.9699993133544922
230.970001220703125 104.730003356933594 19.3899993896484375
231.479995727539062 105.919998168945312 22.8299999237060547
231.919998168945312 104.129997253417969 22.7900009155273438
232.490005493164062 104.540000915527344 21.8199996948242188
232.259994506835938 105.480003356933594 22.5699996948242188
232.42999267578125 104.650001525878906 19.1700000762939453
232.42999267578125 104.849998474121094 22.6900005340576172
232.110000610351562 106 20.8099994659423828
232.3800048828125 104.849998474121094 20.7900009155273438
232.729995727539062 106 21.8400001525878906
232.490005493164062 106.5 15.8599996566772461
232.710006713867188 105.69000244140625 16.5100002288818359
232.889999389648438 105.370002746582031 21.9500007629394531
232.600006103515625 106.180000305175781 17.1100006103515625
